# .PCD v.7 - Point Cloud Data file format
VERSION .7
FIELDS x y z rgb
SIZE 4 4 4 4
TYPE F F F F
COUNT 1 1 1 1
WIDTH 1439
HEIGHT 1
VIEWPOINT 0 0 0 1 0 0 0
POINTS 1439
DATA ascii
-0.7801358 -0.4927084 1.2512331 0
0.8148580 -0.0549026 0.8344818 0
-0.7556847 -0.3755333 1.2543522 0
-0.5042694 -0.3977530 1.1707628 0
-0.7262692 -0.2793197 1.0739574 0
0.2705085 -0.6027774 1.5555474 0
0.5141711 -0.8167508 1.5496314 0
-0.6069222 -0.2793266 0.9986306 0
-0.4877961 0.0591729 0.7178875 0
0.5174161 -0.8164691 1.5474323 0
-0.7008465 -0.0941844 0.9036874 0
0.4172485 0.0274027 0.7197980 0
-0.6601377 -0.1179757 0.8853783 0
-0.0006276 0.1997979 0.7081553 0
-0.7068722 -0.3361604 1.1724764 0
-1.3675511 -0.2059765 1.4088913 0
0.8789951 -0.1272354 0.9534251 0
-0.6197472 -0.4672344 1.3212621 0
0.8834534 -0.4448114 0.7765771 0
1.9604731 0.7911415 1.1838684 0
0.8622941 -0.2799140 0.9203491 0
-1.6845130 -0.1432077 1.4238441 0
1.0702732 -0.2479011 0.9656519 0
0.3212841 -0.7374036 1.8212380 0
1.1052439 -0.6440109 1.9089043 0
0.6555583 -0.4567333 1.2850378 0
1.5921744 -0.0920241 1.2056063 0
0.9808429 0.3800589 0.8128726 0
1.0420921 -0.0739317 0.9262202 0
1.3744433 0.0029162 1.1096263 0
-0.9689357 -0.4090244 1.4056833 0
-0.1371189 -0.1043664 0.7222187 0
-1.4689646 -0.5444729 1.5794857 0
0.5822589 -0.4508227 1.2505128 0
0.5102363 -0.5886639 1.2743981 0
1.5566998 0.2133182 1.0983745 0
0.6418298 -0.3193348 1.0045843 0
-0.9142119 -0.1477610 1.0642687 0
-1.2455746 -0.0780178 1.2053424 0
1.4384402 -0.2450139 1.1551507 0
1.4727230 0.2402787 1.0262907 0
-1.4298085 -0.0908796 1.3398614 0
1.2136549 0.2314426 0.9154629 0
1.0982654 0.3928680 0.8068352 0
-1.4415917 -0.2390707 1.5055002 0
-1.1815237 0.0082849 1.1250129 0
0.2642526 -0.7767516 1.8967346 0
1.4951735 0.2668683 1.0711067 0
-3.0615182 1.4217457 2.0705781 0
0.8619713 -0.1831382 1.0031501 0
0.3014447 -0.4723862 1.2219077 0
0.6010177 -0.5421782 1.4514802 0
-0.8240829 -0.7117360 1.6703655 0
-0.3191155 -0.6138144 1.5409793 0
1.6090461 0.1683275 1.1921926 0
0.8998740 -0.1006611 0.8774477 0
-1.4027841 -0.4404680 1.6323998 0
-1.0797029 -0.4209683 1.4337043 0
1.7859805 0.4751209 1.2293179 0
-0.7105508 -0.8386500 1.7280562 0
0.3449722 -0.4280059 1.1989933 0
-0.8249936 -0.4331634 1.3891478 0
-1.3075739 -0.6217656 1.5715598 0
-0.4728444 -0.7323841 1.6062130 0
-0.8551319 -0.6861191 1.5669219 0
0.4073656 -0.2405991 0.9133016 0
1.0851576 -0.3170843 0.9860615 0
1.4402522 -0.5626046 1.7960986 0
0.2355750 -0.5860543 1.4342235 0
-1.6438977 -0.3398374 1.5285883 0
0.5398253 0.0135862 0.8083689 0
-1.4756411 -0.4024142 1.7599095 0
-1.2225026 -0.2780490 1.3913022 0
0.4206846 -0.2157758 0.9526845 0
-0.7492202 -0.7784750 1.6029954 0
-1.7680025 0.2651009 1.3915805 0
-1.4918095 -0.0286244 1.3641608 0
-1.1698711 -0.8073346 1.6653028 0
-1.1994231 -0.8023444 1.8119242 0
1.4181834 -0.1667736 1.1185220 0
0.8200111 -0.7268423 1.6615744 0
0.4132642 -0.2706330 0.9477849 0
0.1583701 -0.4747978 1.2160449 0
-1.0483552 -0.8487380 1.7245041 0
-1.8511118 -0.1877184 1.6603944 0
0.7857319 -0.0330209 0.8331387 0
0.9641061 0.0808576 0.8809978 0
-1.2794935 -0.2993190 1.4529642 0
1.1186823 -0.1863024 1.0026066 0
0.8379345 -0.1952931 0.9838811 0
1.4007993 -0.3628151 1.1688961 0
0.9978767 -0.7067758 1.9266634 0
0.7860245 -0.2804456 1.1176546 0
0.1363927 -0.3852917 1.0276906 0
0.4068229 -0.2382166 0.9215174 0
1.0158417 -0.1884587 0.9251594 0
-1.1797591 -0.1778357 1.2479106 0
-0.4535783 -0.4933884 1.3218890 0
-0.5652528 -0.1549837 0.8995263 0
-0.9194356 -0.6638101 1.7340375 0
1.1803031 -0.4840482 1.0771761 0
1.2710044 0.0828645 0.9811279 0
-0.9112409 -0.7532612 1.6703537 0
-0.7044660 -0.8081346 1.7043638 0
-1.4927176 -0.8447686 1.9564385 0
-1.2567930 -0.8948311 1.6085315 0
-1.3365389 -0.5870544 1.6298037 0
0.7582532 -0.4827084 1.3465426 0
-0.8624515 -0.7771302 1.7296531 0
-0.8465238 -0.1243884 1.0122482 0
-1.2500376 -0.0728039 1.2096976 0
-0.3156584 -0.5264896 1.3020972 0
-0.6236517 -0.3801815 1.1856821 0
-0.6870351 -0.4121076 1.2756364 0
1.5588971 -0.1556601 1.2082403 0
1.5494587 0.0874594 1.1600971 0
-1.2663817 -0.1216048 1.2592061 0
1.3447114 -0.3510541 1.1184334 0
0.7202807 -0.1152819 0.9144635 0
-1.2695105 -0.1191011 1.2524269 0
2.2400179 0.6544876 1.8260972 0
1.1111022 -0.5152099 0.9909138 0
0.2969059 -0.6275586 1.4273846 0
0.7025354 -0.0563855 0.9079868 0
1.2837597 -0.1498394 1.0547967 0
0.4182433 -0.1420065 0.8148060 0
1.0142673 -0.6798853 0.9404479 0
1.1014678 -0.4781734 0.9805546 0
-0.7255984 -0.3865339 1.2462984 0
-0.5436142 -0.1491278 0.8930709 0
0.1433008 -0.5676419 1.4539115 0
-0.6441119 -0.0142242 0.6524911 0
-0.8641436 -0.0706860 0.9968725 0
-1.0548958 -0.7566428 1.6293900 0
-0.1700877 -0.4876806 1.2603288 0
-0.5981441 -0.4720176 1.2550755 0
-0.4967019 -0.2866106 1.0177739 0
0.8442359 -0.2061580 0.8524671 0
-0.8447463 -0.3859908 1.3268690 0
-0.3616773 -0.5339548 1.4008455 0
-0.4514018 -0.4965640 1.3108139 0
-0.7323459 -0.1756708 1.0078696 0
0.8165156 -0.2300073 1.0174980 0
0.6542333 -0.3469891 1.1003520 0
0.5187237 -0.3894720 1.1165485 0
0.5726179 -0.4329030 1.2146449 0
-0.6539772 -0.4429933 1.3998580 0
0.1463545 -0.4315851 1.0706618 0
1.3655481 0.0868615 1.0044453 0
1.7359761 0.5258749 0.9258091 0
1.5241944 -0.5145877 1.6590457 0
-1.2430403 -0.7618967 2.5506921 0
0.9075764 -0.2075875 1.0100689 0
1.5228335 -0.4332985 1.6361101 0
-1.3411093 -0.1203776 1.3144007 0
1.0871460 0.2024157 0.8114705 0
1.3118303 0.4292544 0.7849490 0
-1.9457017 -0.3960823 2.1595943 0
-1.0492055 -0.6185080 1.9967157 0
2.0909548 -0.0327578 1.5847472 0
2.0330160 -0.0627859 1.5825063 0
2.3682394 -0.0357107 1.7950176 0
1.8794585 -0.1926186 1.5133882 0
-2.0642643 -0.2090456 2.1823256 0
-0.3117484 -0.0726721 0.7439929 0
1.3613135 0.0055003 1.0611641 0
1.9514326 -0.1054591 1.5061264 0
0.8924586 -0.1086563 0.8664857 0
-1.1583240 -0.8461490 2.4282069 0
0.9979694 -0.1825452 1.0398645 0
-1.5696099 -0.8665193 2.6202030 0
1.0974395 0.0307766 0.9006105 0
0.2939777 -0.7723022 1.8975650 0
-1.4000449 -0.1250029 1.3148608 0
1.0097260 0.2378829 0.8011990 0
-0.5511969 -0.2146243 0.9465513 0
-1.2147865 0.0633641 1.0807557 0
-1.5556453 -0.6214697 2.3568838 0
1.4344050 -0.4735606 1.5335033 0
0.3143351 -0.5713918 1.7461321 0
1.8832257 -0.0724419 1.4079812 0
0.9018341 0.1474750 0.7506855 0
0.3291579 -0.4312597 1.2287129 0
-1.0087646 -0.1028085 1.0938909 0
-0.2866967 -0.4718658 1.2348228 0
0.9709080 0.3260301 0.7459549 0
0.7585034 0.2145853 0.7261673 0
1.5105032 0.3877567 0.8817124 0
1.9489511 -0.1001775 1.5081345 0
-0.6576321 -0.3550982 1.1682943 0
-0.8350885 -0.7762173 2.0235724 0
-1.6537552 -0.5945659 2.5429327 0
-0.1582117 0.0387521 0.6787947 0
0.1337095 0.0242938 0.6423851 0
0.6874447 -0.2714259 0.9732691 0
1.7062328 -0.3948310 1.6470290 0
-1.6396104 -0.6620336 2.3831115 0
-1.5584879 -0.6652058 2.6706736 0
1.4873867 -0.6641238 1.6720170 0
1.7492266 -0.6407437 1.9814669 0
1.1768702 0.3549539 0.8567070 0
-1.3780615 0.2793465 1.1092222 0
-1.0805851 -0.0951025 1.1358116 0
1.8182582 -0.1572991 1.4492186 0
1.4263496 -0.4795934 1.5428399 0
0.5686396 0.2186828 0.6381468 0
0.9029295 -0.2397594 0.8981482 0
1.1337919 -0.2255796 1.1722027 0
0.8484523 0.2950503 0.7146199 0
0.9405517 0.3136894 0.7257345 0
1.9533100 -0.5321568 1.8009022 0
1.6722350 -0.1072000 1.3122823 0
1.4175524 -0.3012654 1.1847141 0
1.1918471 -0.2802153 1.0682546 0
1.6605674 -0.2480245 1.4249523 0
1.7108974 -0.4512961 1.6321000 0
1.6534040 -0.1979036 1.4165106 0
0.1466753 -0.0251402 0.6691539 0
0.4606688 -0.1937065 0.8694941 0
2.0144186 0.8993765 1.0806973 0
-1.2149233 -0.2791696 1.3834472 0
-1.5605428 0.1447514 1.2558585 0
-1.2541878 -0.0742720 1.2156144 0
-0.5132343 -0.2005458 1.0066100 0
0.3174994 -0.4220940 1.1382005 0
1.0818613 -0.7396288 1.7787402 0
0.7858832 -0.4095936 1.2744495 0
1.2873604 0.0973791 0.9979100 0
-1.4159155 0.2592679 1.0888168 0
-0.9155600 -0.1427266 1.0631070 0
-0.6849223 -0.0234365 0.8437564 0
-1.2705835 -0.3108847 1.4731934 0
2.1552620 0.5336863 1.2810032 0
-0.6284667 0.2419586 0.7370743 0
1.0043097 -0.0113449 0.9189739 0
1.6386399 -0.1484770 1.2315316 0
0.7714357 0.0134977 0.8001561 0
1.8898928 0.7678850 1.0407660 0
0.7979063 0.2240231 0.7436122 0
0.5858695 -0.7159553 1.7319757 0
0.6765795 -0.1625158 0.9287820 0
1.2543100 -0.6396961 1.9214087 0
-1.3026927 0.2037774 1.0863626 0
1.2771833 -0.5765992 1.8692801 0
0.1943057 -0.7093527 1.5089254 0
-0.0647578 -0.1009811 0.7216412 0
-0.3899225 -0.3343424 1.0296551 0
0.7180139 -0.2419871 0.9733674 0
0.7637119 -0.3398791 1.1196508 0
1.2668494 0.4003160 0.8530057 0
-1.0266486 -0.4373896 1.5143915 0
1.3135673 0.3513958 0.8955327 0
-1.2529291 -0.0239075 1.1576408 0
1.2590982 -0.6478866 1.9368358 0
-1.1074769 -0.1641231 1.2118477 0
-0.4977714 -0.3021289 1.0354927 0
-1.4609613 0.2955825 1.1331332 0
-0.8897187 0.2150413 0.8156624 0
-0.1776806 0.0421636 0.6198080 0
1.0007490 0.1011120 0.8576005 0
-0.8891156 0.1188652 0.8512544 0
0.4841837 -0.6699086 1.5566945 0
-1.0530639 -0.8085188 1.8610452 0
-0.2718327 -0.3671373 1.0220827 0
1.4248021 0.1309949 1.0951759 0
1.0925325 -0.6480347 1.8951916 0
-0.0520933 -0.6637074 1.5287967 0
1.2399440 0.5596897 0.7980308 0
1.5124580 -0.7199548 2.2159836 0
0.6397616 -0.4615326 1.2527481 0
1.0842235 -0.0188024 0.9576241 0
-0.9069194 0.1751370 0.8577214 0
1.4559184 -0.4870401 1.8180929 0
0.4927021 -0.2880290 1.0188756 0
1.7966601 0.8061066 0.9973111 0
-0.2561929 0.1084772 0.7027869 0
0.7231452 -0.1203553 0.9056486 0
-1.4307349 -0.4523998 1.5908449 0
1.5479069 0.3675072 1.0076027 0
1.5626982 0.0379715 1.1765411 0
0.9947112 0.4113564 0.7799059 0
-0.9040799 0.1579386 0.8418704 0
1.4418746 -0.4898123 1.8723496 0
0.6832092 -0.1966469 0.9082608 0
0.3535144 -0.4303467 1.1246746 0
-0.7167132 -0.0776624 0.9266508 0
1.7394439 -0.0925176 1.2797301 0
0.1370786 -0.3464753 1.0061002 0
-1.4150205 -0.1930426 1.4212040 0
-0.2974231 -0.5905898 1.4450536 0
-1.3452144 -0.1765881 1.3393900 0
-1.0884078 -0.0069496 1.0608159 0
-0.8588656 0.1594631 0.8462388 0
0.9284567 0.2420945 0.7552683 0
0.4138362 0.1503022 0.6682016 0
-0.1680855 -0.0275793 0.6601842 0
0.3705457 -0.1719870 0.8334193 0
1.6757802 0.0133550 1.2327194 0
-1.0798272 -0.7920879 2.1910672 0
0.9113189 -0.3007798 1.1548481 0
1.5679616 0.2226957 1.0795392 0
1.0690168 -0.2188475 1.1916698 0
1.8363918 0.5881807 1.0975661 0
-0.2902676 -0.2765158 0.9087821 0
-0.7914500 -0.7343053 2.3346822 0
1.6714067 -0.5441601 3.0339973 0
1.2230749 0.2956226 0.8759993 0
1.2927501 -0.5918751 1.1462572 0
-0.7592177 -0.0442510 0.9060711 0
1.6248677 -0.5791081 1.5298096 0
-0.7148783 -0.4137295 1.1540958 0
0.9531093 0.0774285 0.8959028 0
1.6054978 0.3186573 1.0761230 0
0.6582288 -0.2875362 1.0628124 0
1.8778948 0.0589347 1.5134759 0
-0.6664031 -0.2509923 1.0745249 0
-0.5228565 -0.3459976 1.1119715 0
-0.8455188 -0.1887175 0.6323144 0
-0.5687904 -0.3709277 1.1549594 0
0.3833887 -0.7647811 1.4876437 0
-2.0592597 -0.2201574 2.3615770 0
0.2987028 -0.3676094 1.0577943 0
2.1954770 -0.4052536 2.1772647 0
0.6128333 0.0088928 0.9013091 0
0.4709563 0.1519347 0.6381225 0
-0.7537881 -0.5313669 1.5155482 0
-0.5458398 -0.4270377 1.2080973 0
0.7953548 -0.4761292 1.4056740 0
2.4939251 -0.3386614 2.3376164 0
-0.3884104 0.0416489 0.5720161 0
2.9608426 -0.0413713 2.3996456 0
0.1357280 -0.5258790 1.2974982 0
1.8670969 0.6905985 0.9412702 0
1.9588128 -0.1149491 1.6279063 0
1.0339600 0.2564910 0.7467638 0
0.6687080 -0.3301500 1.1050298 0
-0.5015873 -0.3967780 1.1598356 0
0.7321381 -0.4020917 1.2216973 0
2.6725638 -0.2876018 2.5329862 0
0.8396451 0.3376667 0.6792007 0
1.1263703 0.3106835 0.8118560 0
1.1517335 0.0215587 0.9923160 0
2.2453501 -0.1029333 1.9798092 0
0.6150787 -0.3020428 1.0531312 0
0.9345013 0.0968824 0.8240681 0
-1.0030404 -0.6716815 3.0205297 0
-1.4891388 -0.6185958 3.2299590 0
0.5233160 -0.5458800 1.4280322 0
0.9627557 -0.1888519 0.9856788 0
2.7641249 -0.0018741 2.4779580 0
2.3947327 -0.2072509 2.2373035 0
1.5844685 -0.0989607 1.2002759 0
1.2779611 0.3704695 0.8449666 0
-0.5021968 0.0363680 0.6815965 0
1.8831139 -0.3728413 1.8521476 0
-0.0379933 -0.6572322 2.8365111 0
1.6732570 -0.2965011 1.5996521 0
0.5803925 -0.2686675 1.0067436 0
0.8693728 0.1863747 0.7326494 0
2.7981155 -0.2701516 2.6376860 0
0.1458516 0.1085652 0.5965167 0
-0.9095377 0.2353330 0.8345500 0
-0.9149756 -0.0603558 0.9726490 0
2.8089211 -0.4171149 2.9270458 0
2.1432207 -0.0474193 1.7936696 0
-0.6738122 0.1159123 0.7541683 0
2.3369391 -0.4202526 2.3196204 0
2.3118243 -0.0959398 2.1172044 0
2.6767051 -0.2310766 2.5344427 0
2.1564958 -0.3922544 2.0787857 0
2.6998169 -0.3566478 2.7438998 0
0.8953328 -0.2346288 0.9005236 0
0.5054008 -0.4314412 1.2276310 0
-0.5274191 -0.1295192 0.8687925 0
0.1230030 -0.2148676 0.7963318 0
0.9044077 -0.1726902 0.9957396 0
-0.6160812 -0.1260547 0.8974201 0
2.9064200 -0.4974598 3.9612312 0
1.0162604 0.1767064 0.8378026 0
0.5820087 -0.3511961 1.1020148 0
0.2385825 -0.5998657 1.6277566 0
-1.3804498 -0.1693515 1.3557495 0
-1.4144892 -0.6316642 2.7147458 0
-0.7075729 -0.1422692 0.9836771 0
-0.4321896 -0.4609774 1.2196854 0
0.2299536 -0.7002922 1.8835868 0
0.8550086 0.0542396 0.7554024 0
0.5812183 0.2103046 0.6661086 0
1.6971747 0.6403444 0.9320380 0
2.0647049 -0.3754504 1.9703803 0
1.4397757 -0.3566885 1.2992867 0
1.5376569 0.0188433 1.1659998 0
-0.5830118 0.2078241 0.6661550 0
1.5389338 -0.1837136 1.2463919 0
1.7961018 0.6109282 0.9727743 0
-0.4927644 -0.1937181 0.8926682 0
0.2142954 -0.7082987 1.7970147 0
-0.7699530 0.2893350 0.7451293 0
-1.3649052 -0.0015985 1.1749318 0
-0.2285164 0.0796385 0.5886855 0
-0.4458210 0.1514620 0.6460945 0
0.4271821 0.1630548 0.6405025 0
0.5094127 -0.2878473 1.0183156 0
0.8855348 0.3889934 0.7483916 0
1.3218428 -0.7437983 2.2319763 0
1.0659839 -0.7403759 1.9996600 0
0.4207993 -0.6924774 1.7429518 0
-1.2912908 0.4143518 0.9634329 0
-0.4441679 0.1338007 0.6502342 0
1.3988678 -0.4073132 1.2595108 0
-0.1625264 0.0882467 0.5909083 0
0.5286527 -0.6389481 1.6217080 0
-0.0103769 -0.4690280 1.1735548 0
0.4265284 -0.0262178 0.7748553 0
-0.0382574 -0.6088179 1.4903109 0
-0.4608744 -0.5140471 1.3376739 0
0.7919186 0.1761760 0.7653844 0
0.2061197 0.1057070 0.6272317 0
0.9885716 0.0240822 0.8710745 0
0.9285672 0.2350309 0.7543100 0
-1.2983794 -0.3027067 1.5012708 0
-1.2678276 0.2469340 1.0134897 0
-0.3289961 -0.4880473 1.2621294 0
-0.5118793 0.1028665 0.6875867 0
-0.0978312 -0.7297987 1.9088532 0
-0.1997738 -0.6716236 1.7485882 0
0.5639740 0.1574087 0.6916997 0
-0.4690572 0.0012205 0.7189506 0
1.3297178 0.0191189 1.0713586 0
-0.0346210 -0.5659096 1.4160123 0
-0.7011322 0.1940854 0.7330829 0
-0.4938394 -0.5067119 1.3842992 0
-0.5006548 -0.4048136 1.1844623 0
-0.6945210 -0.0998976 0.9062366 0
0.6536922 -0.5604072 1.3357826 0
-0.0056536 -0.5446501 1.3275199 0
-1.1533924 0.0069521 1.0794617 0
0.7921219 -0.4410328 1.3432889 0
-0.0092613 -0.1305221 0.6871464 0
-1.3133498 0.3601924 1.0013186 0
-1.1441511 0.0569614 1.0480551 0
0.5276814 -0.6034448 1.5321019 0
1.0834899 -0.3333340 0.9615072 0
2.1719661 0.9452547 1.1356229 0
-1.3406986 0.1145326 1.1269804 0
-0.8092739 -0.2700473 1.1351852 0
-0.1128370 -0.5550357 1.4360361 0
1.2687445 0.3445282 0.9128929 0
-0.1756791 0.1567481 0.6211261 0
-0.6013435 -0.5188433 1.4189218 0
-1.1482849 0.0044635 1.1313311 0
-0.2320278 0.1103038 0.6164147 0
0.5598891 -0.1952449 0.9169022 0
-1.1497774 0.2330900 0.9456499 0
-1.0401013 0.3118861 0.8677710 0
-0.2585680 0.0487415 0.6560342 0
-2.0031183 -0.6582167 2.9662247 0
-0.1199430 -0.4268816 1.1092217 0
-0.2996942 -0.3425289 1.0219547 0
1.8114176 -0.5389661 3.1557167 0
-0.5073459 -0.3387415 1.0728158 0
-1.1077144 -0.2048516 1.2883449 0
-0.7234675 -0.4250436 1.3948092 0
-0.4994834 -0.2751866 1.0053213 0
-0.9072862 -0.0965711 1.0348219 0
-0.4574959 -0.5150763 1.3384534 0
-0.7134213 -0.1830845 0.9975035 0
-1.0457349 -0.0882895 1.1216033 0
-0.1141793 0.1470729 0.7269105 0
0.1200018 -0.0207418 0.5961549 0
0.9310330 -0.3818906 1.3675543 0
-0.5888054 -0.1863187 0.9440705 0
-0.4588214 -0.7186154 1.6875052 0
0.4209549 -0.4407973 1.2226689 0
-0.8689475 -0.2077620 1.0401345 0
-0.9260664 -0.2391103 1.1774584 0
0.5063093 0.1354489 0.6901519 0
1.6643147 -0.2421176 1.4477082 0
1.2526478 0.0281746 1.0386548 0
-1.1464694 -0.1903082 1.2620087 0
-0.4310363 -0.3926870 1.1482698 0
-0.3857650 -0.1586739 0.8599932 0
0.7684790 -0.2475607 0.8100871 0
-0.4806280 -0.4081601 1.2369834 0
1.9911556 -0.3108795 1.7939594 0
0.9690111 0.2236964 0.6809634 0
-1.1696298 0.0128645 1.1041597 0
0.3927702 0.0242000 0.6336740 0
-0.6710015 -0.4881660 1.5819192 0
-0.7042524 -0.2851876 1.1165926 0
-0.9735035 -0.2104102 1.1740870 0
0.1315992 -0.0578237 0.6729273 0
1.8181232 -0.5474356 3.2029452 0
-2.0726671 -0.5889896 2.4459238 0
-0.5180866 0.0886297 0.6917138 0
0.2782505 -0.5800808 1.6330277 0
-1.3051234 0.3687044 0.9835238 0
-0.1029937 -0.5964755 1.5544864 0
-0.5663376 -0.4886403 1.3651315 0
-1.0993136 -0.3380131 1.3640494 0
-1.3084064 -0.6933169 2.2839036 0
-1.2794689 0.1316593 1.0779023 0
-0.9804311 0.2229221 0.8626101 0
-1.4897934 0.5436491 1.0244492 0
-0.8303726 -0.4795640 1.4622579 0
1.4127324 0.2380289 0.9764681 0
-0.9884346 0.2373162 0.8513302 0
-0.7292849 0.1463588 0.7536044 0
-0.9720923 -0.6235364 1.9045208 0
-0.6950731 0.1083202 0.7625804 0
-1.3885092 0.2302002 1.0632683 0
-1.3636883 0.4975370 0.9624132 0
1.1054431 -0.0237713 0.9845603 0
-1.0649546 0.2566017 0.9031639 0
-0.7463945 0.1969539 0.7617804 0
-0.0999803 -0.0726195 0.7276344 0
-0.7127859 0.1511499 0.7566516 0
1.0085751 0.2248214 0.7893420 0
-1.0741391 -0.4273313 1.4321200 0
-0.6061856 0.1433876 0.7194516 0
-0.8344504 0.2518798 0.7671419 0
-1.1636330 -0.2281576 1.2859849 0
-0.8580484 -0.0795518 0.9813701 0
0.9300312 -0.7202186 2.0745056 0
-0.4803270 -0.2202863 0.9291447 0
-1.7672642 -0.5431391 2.2272930 0
-0.8092722 -0.1949915 1.0378177 0
-1.4188627 0.3423826 1.0515323 0
-0.8148251 0.0360929 0.8656482 0
1.5153188 0.1105448 1.1366329 0
1.0763319 -0.0645988 0.9671736 0
-1.4373755 0.4498786 1.0237678 0
-0.7126049 -0.0767713 0.8524776 0
2.1178417 -0.6127049 2.8037231 0
-0.3736273 -0.3198994 1.0487682 0
-0.5473568 -0.7279273 1.8777142 0
-0.4897543 -0.0204862 0.7499063 0
0.2056858 -0.5393902 1.4021087 0
0.6581188 -0.3404111 1.0807424 0
-0.4207402 -0.5833408 1.4775398 0
1.8723162 0.6784695 1.0375061 0
-0.8265681 0.1003294 0.8369470 0
-0.8941621 0.2219888 0.8225825 0
-0.9381555 0.1192038 0.8986471 0
0.5659133 -0.4776267 1.2357547 0
1.4624075 -0.6744738 1.3713704 0
0.6594025 -0.5990956 1.6134090 0
-0.1660143 0.0361943 0.6185740 0
-1.1637651 -0.5086737 1.7676039 0
-1.0707073 0.1514241 0.9488906 0
-0.8254415 -0.4780863 1.4611554 0
-1.1120723 -0.4406652 1.6335660 0
0.4603371 -0.6670890 1.7218022 0
0.8492734 0.1697458 0.7817932 0
-1.0770975 0.0695926 0.9987215 0
1.4561529 0.4486362 0.9338918 0
-0.8173276 -0.0789353 0.9555959 0
-1.1551639 0.0714116 1.0571916 0
-0.9063795 -0.2057645 1.1358516 0
-0.5870579 -0.0941418 0.8452760 0
-0.6723974 -0.2136451 1.0237272 0
0.5121275 -0.4278732 1.1703708 0
-0.8391961 -0.0308260 0.9172590 0
-0.1446161 -0.6373724 1.6280758 0
-0.7069135 -0.5024372 1.4353213 0
-0.9458066 0.0419262 0.9197603 0
-1.0742881 -0.0120146 1.0724775 0
-1.2518642 -0.0168195 1.1643608 0
-1.4616899 -0.2929696 1.4645550 0
-1.1000097 0.1834253 0.9577377 0
-1.3481395 -0.1763354 1.3433601 0
-1.3343364 0.2297694 1.0570754 0
-1.4424118 -0.4146204 1.6523639 0
-1.1258405 -0.6267975 1.9182661 0
-1.3998201 -0.6553367 1.8133353 0
0.4451356 -0.7498956 1.7564164 0
0.0151470 -0.6431819 1.6201988 0
-1.2570295 -0.6588253 1.9514138 0
0.4780767 0.0785811 0.6435224 0
0.4650174 0.1132296 0.5745915 0
-0.9515092 -0.1552131 1.1015229 0
-0.8621923 0.2807047 0.7865545 0
0.6882695 -0.0552978 0.8283215 0
-1.2366756 0.4505995 0.9329065 0
-0.6990871 0.1949073 0.7184275 0
-1.0234667 0.2847813 0.8524963 0
0.2889452 -0.4498075 1.2107363 0
0.1271901 -0.4986002 1.1916363 0
0.8816835 0.3038463 0.7292695 0
0.8317179 0.1396903 0.7608073 0
1.1792104 -0.0443473 1.0080459 0
-1.1146802 0.2043665 0.9389160 0
-0.9908274 -0.1110492 1.0760452 0
0.5956289 0.2911904 0.6371127 0
-0.6353449 -0.2376477 1.0147804 0
1.3789889 0.3238372 0.9439387 0
-0.3634863 -0.3821568 1.0775988 0
-1.1813756 -0.0156810 1.1063635 0
-0.3585996 -0.1285719 0.7972649 0
-1.1782058 0.1207468 1.0022163 0
0.5664234 0.2221111 0.6359580 0
0.8628765 -0.2054708 0.9508341 0
0.8689280 0.1969395 0.7426852 0
-1.0733073 0.3556984 0.8578041 0
1.6470443 0.4337156 1.0451163 0
-0.7031541 0.0557436 0.7472652 0
-1.4538115 -0.0822876 1.3557134 0
-1.0094091 -0.1320764 1.1166288 0
-0.5967583 -0.2180375 0.9857172 0
0.7979499 -0.3734819 1.1538690 0
-0.0085545 -0.2922049 0.8879586 0
0.4764272 0.2085792 0.6603131 0
-0.5029129 -0.4023358 1.1512707 0
0.6782154 -0.3182671 1.1370707 0
-1.2772409 0.1802858 1.0549694 0
-1.0614935 -0.1115674 1.1129411 0
-1.4665368 0.2683558 1.1656748 0
0.1347777 -0.2018077 0.7718645 0
-0.5594771 -0.0883900 0.8335524 0
-1.1755859 -0.5604415 1.9611967 0
-2.3056943 -0.6097629 2.7550852 0
-0.6738901 0.1240377 0.7417642 0
1.7195159 -0.3943711 1.4678915 0
1.8813965 -0.4141738 1.6070656 0
-1.3497883 0.3682439 0.9884056 0
1.4330032 -0.3512363 1.2827333 0
0.8178437 -0.2611692 1.0799206 0
-0.2606882 -0.4813641 1.2490723 0
0.9278088 0.3111066 0.7392354 0
-0.4230795 -0.2879994 0.9573334 0
-1.2864938 -0.0387920 1.2099274 0
-2.3162305 -0.3773715 2.5835912 0
1.7295717 -0.3248742 1.4244170 0
-0.5807714 -0.0028996 0.7742595 0
-0.0878185 -0.6031916 1.7454282 0
-1.3862512 -0.3937852 1.6676450 0
-0.6874146 0.0348697 0.8008962 0
-1.3914635 -0.0021762 1.2375690 0
1.2145480 0.2931936 0.8661601 0
-0.0559552 0.0436857 0.6341010 0
1.6614057 0.0165858 1.2251664 0
-1.1106962 -0.1354403 1.1722101 0
-0.4878101 -0.2714666 0.9474888 0
-0.5996326 -0.3212500 1.0415870 0
0.3563099 -0.7613173 1.9998683 0
0.5185966 -0.7300997 1.9114053 0
-1.1686759 -0.6700001 2.0295289 0
-1.2656363 0.2501867 1.0099239 0
-0.8190429 0.1183687 0.8349512 0
-1.4611585 -0.1280122 1.4309173 0
-0.6397292 -0.1394003 0.9164824 0
-0.9049444 -0.2040945 1.1190794 0
-1.4384637 0.3579443 1.0694520 0
1.5730593 0.3755762 0.9930903 0
1.6477281 0.3518779 1.0165993 0
-0.3599551 -0.5315955 1.3957214 0
-1.3900046 -0.0428381 1.2753078 0
1.7984135 0.8504833 0.9906499 0
1.4857814 -0.4997939 1.3471335 0
0.6314323 -0.7306636 1.8290217 0
1.2347814 -0.3872131 1.0970811 0
0.2884546 -0.4375407 1.1600938 0
0.5254313 -0.5395099 1.3119991 0
1.4680662 0.5067241 0.8916327 0
0.3596908 -0.4499860 1.2333697 0
-0.7820153 0.1622817 0.7818648 0
1.4216388 0.3637234 0.9805381 0
0.8911741 -0.2591243 1.1165432 0
-0.5451534 -0.3105252 1.0131482 0
1.2089801 0.2888299 0.8670235 0
0.1380741 -0.4559970 1.1999410 0
0.5701708 -0.1678095 0.8986693 0
0.4879006 -0.5112917 1.3609827 0
0.6118793 0.2304815 0.6735005 0
-0.3752074 0.0978295 0.6260887 0
0.4911779 -0.4932415 1.2846066 0
-0.8954080 0.2297979 0.8262098 0
0.6019867 -0.3675505 1.0708212 0
-0.8891383 0.1292477 0.8479175 0
1.2818903 0.4186246 0.8168532 0
-0.7592087 0.0469176 0.8459470 0
0.5961376 -0.2388139 0.9530455 0
0.7794200 0.0439738 0.7824675 0
-0.7520766 -0.4863948 1.4477049 0
-0.5960615 -0.0137452 0.7120088 0
-0.4724827 -0.3245130 0.9867233 0
-0.3261481 -0.2121589 0.9059969 0
2.1255131 -0.6798390 2.5080042 0
1.2145746 0.1784561 0.9319107 0
0.8935050 0.0518277 0.8105927 0
-0.6930029 -0.4423230 1.3398536 0
1.0862709 0.3166974 0.8487646 0
-1.2063208 -0.2316763 1.3377423 0
0.5329750 -0.5593880 1.4509094 0
-2.8438962 -0.4467171 3.1879792 0
-0.4908984 -0.0190781 0.7807389 0
0.6865733 0.3854036 0.7253257 0
-1.7412791 0.0633186 1.4743038 0
-1.7530982 0.1788869 1.4124738 0
0.4683109 -0.3728367 1.0885884 0
2.1198103 -0.7219402 2.5798166 0
-0.8717238 0.5329484 1.0136559 0
-1.6560489 0.2988414 1.2657175 0
-2.1820102 -0.2672140 2.3427632 0
-2.1322672 -0.4409890 2.4701672 0
-1.5547158 0.1426680 1.2899320 0
0.0314414 -0.7068772 1.7027791 0
0.0899322 -0.7439499 1.8929455 0
0.5027917 -0.6158318 1.5899931 0
0.6060838 0.2469955 0.7109333 0
0.8610129 -0.1505990 0.9535835 0
-1.9494700 0.6842057 1.4114336 0
-0.7689469 -0.2413924 1.0804678 0
-1.3544832 0.1268579 1.1431004 0
-1.2157320 0.2203028 1.0095361 0
-1.1518278 0.4825078 1.0545990 0
-0.5305452 -0.4216503 1.2018667 0
-1.7584106 -0.5300142 2.0173008 0
1.2986329 -0.6629527 2.1576395 0
-1.6054476 -0.5688509 2.4608073 0
-0.7627735 -0.4863994 1.4620680 0
-1.2863779 0.3240785 0.9708313 0
-0.3242284 -0.6337695 1.4427289 0
1.1839793 -0.7702008 2.0149488 0
-1.8824810 0.5454774 1.3259984 0
-0.7901039 -0.3557453 1.2502248 0
-0.7590252 -0.0483381 0.9003463 0
-0.9938706 -0.4733338 1.2889746 0
0.0224691 -0.4358675 1.0749354 0
-1.4857752 -0.1014296 1.3340173 0
-0.5515912 -0.5069810 1.3192723 0
-0.7416314 -0.2980118 1.1437616 0
0.9181788 -0.1195198 0.9335718 0
-0.8326207 -0.4325754 1.4024298 0
-1.5525228 0.4663847 1.1734374 0
0.2294030 -0.3389167 0.9860973 0
1.3606679 -0.5436651 1.7842934 0
-1.7584516 -0.6825246 2.7409930 0
0.0097431 -0.6522335 1.5758171 0
0.4293174 -0.5564987 1.4849330 0
0.8831584 0.3987570 0.7190438 0
1.6953975 0.5245964 0.9726391 0
0.4623257 -0.4536813 1.2586454 0
-0.7313499 -0.1807351 1.0005929 0
-0.4757029 -0.4330617 1.1615252 0
1.6564115 -0.4437139 1.8599155 0
-0.0292964 -0.6228834 1.5624510 0
-0.1662142 -0.4677110 1.2219826 0
-1.9034307 0.9404125 1.2759688 0
0.8169661 -0.2034831 1.0029398 0
0.8336636 0.0174866 0.8284463 0
1.1426979 -0.7529808 2.1424577 0
-1.3879490 0.0518139 1.2147434 0
-0.9664106 -0.7254111 2.1337435 0
-2.3804884 -0.4066484 2.8273764 0
0.9441725 -0.1403628 0.9466457 0
-2.0593009 0.5124331 1.5819952 0
0.8915827 0.1258958 0.9499031 0
-1.6391195 0.4197657 1.1761503 0
-1.4442830 -0.0015892 1.3246239 0
-0.9931909 -0.1929363 1.1242417 0
0.8780834 0.3112428 0.7354125 0
0.4045061 0.1371889 0.6609589 0
-0.8280152 -0.7442185 1.9877194 0
-1.0250409 -0.0795727 1.0624990 0
-1.3441271 -0.6495151 2.1799917 0
-0.7559625 0.0343192 0.8259061 0
-1.5470465 0.3364584 1.2479410 0
-2.5801785 -0.3130375 2.9245703 0
-1.1543278 0.0089308 1.1481506 0
-0.1909050 -0.2220232 0.8032800 0
-0.6436557 -0.3432170 1.1077881 0
1.3252046 0.2788555 0.9462758 0
-1.7995789 0.3659307 1.3925217 0
-1.0157440 -0.1009328 1.0838915 0
-1.1814160 -0.0028483 1.1034410 0
-0.9701727 -0.4753225 1.6121264 0
-1.1339227 0.6814805 1.0557020 0
-0.6844772 -0.4126664 1.2803596 0
1.1082278 0.2287431 0.8394696 0
-0.5393241 -0.2838456 1.0132103 0
-0.9210445 -0.0991173 1.0146663 0
-1.5815500 0.2135748 1.2832654 0
-1.9040971 0.5883108 1.4165050 0
-1.7393669 0.5736684 1.4092286 0
-1.4096501 0.2350430 1.1112876 0
-0.6026616 -0.3200771 1.0407474 0
-1.5131894 0.7629499 1.2252898 0
-1.3897352 0.5257022 1.0540510 0
-1.2788312 0.1444469 1.1021808 0
-2.1634462 1.2387966 1.6947013 0
1.2181318 -0.6720397 1.9065676 0
0.2740059 -0.5521618 1.3355346 0
-1.8821732 0.1889403 1.4860890 0
0.5851834 -0.4525629 1.2480597 0
-0.7176214 -0.2111497 1.0252182 0
-1.7109740 0.3667370 1.2965626 0
-0.3057714 -0.5159588 1.3229390 0
1.5132457 -0.4967937 1.8088757 0
-0.9532112 -0.3056216 1.2617751 0
-0.3462116 -0.4942431 1.1519121 0
1.7660493 -0.4394021 2.0118766 0
-1.6926460 0.7501432 1.1691444 0
0.6121367 -0.5917041 1.4151225 0
0.3914172 -0.7020259 1.8379519 0
-1.4931924 -0.0065326 1.2971315 0
1.0010843 0.0897865 0.8667793 0
0.8772393 0.1879691 0.7788172 0
0.8664934 -0.2444163 1.0727814 0
-0.5991460 -0.4350863 1.2386091 0
-1.4442157 0.0668075 1.2240798 0
1.2974018 0.3384716 0.8837812 0
0.1340600 -0.1659439 0.7459240 0
-0.7224470 -0.5004584 1.4611328 0
-1.5560228 -0.0765044 1.4173756 0
-0.2962798 -0.5529484 1.2539778 0
-0.2305569 -0.4585947 1.2477951 0
-0.8988956 0.1375202 0.8578534 0
1.4375228 -0.1802210 1.1326356 0
-1.3605611 0.3876358 1.0058093 0
-1.4813962 -0.0763636 1.3475567 0
0.9504139 0.2530849 0.7685797 0
-1.3741246 -0.6500276 2.0644424 0
1.3164352 0.2213729 0.9644834 0
-1.5574796 0.1422428 1.2533163 0
0.5251874 -0.2650247 1.0038264 0
-0.7322968 -0.3843306 1.2571502 0
-0.9657485 -0.0002261 0.9933203 0
-1.5688300 -0.4678911 1.7889172 0
0.7454175 0.1212115 0.7201507 0
1.0867732 0.2288535 0.8176178 0
-0.6785849 -0.2933580 1.0827805 0
0.1243432 -0.3341835 1.0054263 0
0.1324095 -0.0129275 0.6331296 0
-0.0417866 -0.3984108 1.0509568 0
-0.9550003 -0.6279840 1.8749585 0
1.0000588 -0.6198316 1.8622427 0
-1.3456930 0.1151814 1.1316534 0
1.5635567 -0.0246547 1.1887276 0
0.4799643 -0.6344540 1.5318955 0
-0.1398316 -0.2713370 0.8683653 0
0.4262366 -0.7463466 1.9603391 0
-0.1305483 -0.5095149 1.2970498 0
0.4411084 0.0854011 0.6867509 0
-0.3876686 -0.3641301 0.9800106 0
-0.7521824 -0.5344197 1.5079461 0
-1.4543312 -0.4152347 1.6677960 0
-0.6351563 -0.6434126 1.3217267 0
0.8163840 -0.0864010 0.8893697 0
-0.4252025 -0.4566505 1.2317169 0
0.4612440 -0.5582582 1.2901034 0
-1.0011410 -0.1381917 1.1126354 0
-0.6078171 -0.1964288 0.9582762 0
-0.6144027 -0.0828594 0.8675491 0
-1.0062259 -0.1612327 1.1336415 0
0.1988999 -0.1013659 1.0392048 0
0.8902092 -0.1700384 0.8832902 0
0.4433586 -0.4040834 1.1910607 0
1.3526393 -0.4557969 1.3060362 0
0.9803459 -0.7545724 1.1769265 0
1.2937903 -0.4735605 1.2518812 0
0.8163887 -0.1825715 0.6204236 0
1.2782191 -0.4820912 1.2344035 0
-0.5496195 -0.4044452 1.1228516 0
0.8179874 0.0578472 0.7608675 0
0.9111536 0.0750794 0.6777288 0
0.1555458 -0.0826562 0.9896659 0
-0.1415557 0.0630221 0.7393923 0
1.6411736 -0.5956947 1.6828738 0
-0.6091954 0.0104678 0.7767643 0
-0.8063905 -0.0605725 0.9100918 0
-0.5810921 -0.1105073 0.8223523 0
1.0044154 -0.2193738 0.9814028 0
0.7001192 -0.3141022 1.0672476 0
-0.2852651 -0.2817400 0.9000449 0
-0.6937152 -0.0854080 0.8896434 0
-1.6294031 0.3511010 1.1720099 0
0.6687388 -0.1711386 0.9067510 0
-0.6452550 0.0570143 0.7585031 0
-0.5869448 0.0175665 0.7619706 0
-0.1345557 -0.0875603 0.6825835 0
0.5676194 0.0764667 0.7172485 0
0.3589170 -0.7213064 1.9565693 0
0.2224243 -0.6171018 1.4796215 0
1.1872022 -0.6298857 2.1464291 0
1.1848456 -0.7119886 2.3027644 0
-1.2765340 -0.2654599 1.4277723 0
-0.7777292 -0.1043531 0.9495817 0
1.2969728 -0.4641244 1.1538793 0
-1.7413119 0.1711507 1.3992532 0
-0.1820649 -0.4341826 1.1340767 0
-0.6999339 -0.1279657 0.9365926 0
1.5955307 0.4596652 1.0137199 0
1.3185737 -0.5405375 1.2899143 0
-0.4678110 -0.4660967 1.2885401 0
-0.6823372 -0.3315137 1.2310690 0
0.0243704 -0.5402072 1.3465744 0
0.2535363 -0.4514645 1.2026446 0
1.3700584 0.5483930 0.9903574 0
0.2373420 -0.5199408 1.3123891 0
-0.3683164 -0.5415809 1.4213216 0
0.8914735 0.0009852 0.8679966 0
-0.8318081 -0.2327699 1.1022853 0
-0.9173775 -0.0429388 0.9869574 0
-0.4336077 -0.4885133 1.2722461 0
-1.5514797 -0.1119171 1.5314143 0
-0.3000054 -0.5889801 1.4577680 0
-2.2579677 0.1895914 2.0341165 0
-1.0768760 0.1582907 0.9338322 0
-0.2459179 -0.5777441 1.4591235 0
-1.7779374 0.5396931 1.2912621 0
1.5805904 -0.7176528 2.0463359 0
1.0448883 -0.7095715 1.9994035 0
0.7903022 0.1769896 0.7326005 0
-0.9084691 -0.2966480 1.2403716 0
-1.8347104 0.0232153 1.6299742 0
-0.8805152 0.0821294 0.9497276 0
-1.0363631 -0.0410932 1.0002619 0
-1.5822434 0.0551195 1.3974128 0
1.8158787 -0.7066538 2.1896651 0
-1.0583894 0.1338396 0.9527501 0
-1.2752324 -0.2131723 1.3757371 0
1.3120444 0.3546097 0.8998169 0
-1.4987520 -0.0947836 1.2252122 0
1.2065610 -0.7003546 1.8072180 0
-0.8395129 0.0674819 0.9258214 0
0.3385269 -0.0022796 0.6959573 0
-0.2002375 -0.4230741 1.1274027 0
-1.6748887 0.1530493 1.2861717 0
1.6148643 -0.5246928 2.0033517 0
-0.4024808 -0.5620296 1.4970888 0
0.7219151 -0.0518198 0.8432732 0
0.7495514 0.2909021 0.6926676 0
-0.3809810 -0.1764841 0.8386387 0
0.6424577 -0.4743274 1.3627512 0
-1.3316603 0.1769087 1.1080412 0
-0.9909607 -0.2713362 1.2200444 0
-1.1221164 -0.7011557 1.8328404 0
-1.6017506 -0.5721459 1.8852935 0
-1.0883430 0.0955338 0.9739260 0
-1.2252672 0.1886850 1.0041398 0
1.2985882 0.1441710 0.9755108 0
-0.1668592 -0.4911104 1.1603690 0
-0.6656247 -0.2267970 1.0049469 0
0.5485422 0.0283120 0.7540227 0
-0.4349757 -0.6007166 1.5389669 0
-0.9834135 -0.3990388 1.3840560 0
-1.3238955 -0.1896978 1.3184258 0
-0.9565496 -0.1535109 1.1076195 0
-0.7702038 -0.5934423 1.5841078 0
-1.7900739 -0.7299517 2.1802554 0
-1.5996462 -0.5732909 1.8727885 0
-1.1027513 0.3401001 0.8076524 0
-1.1837424 0.3271421 0.9391884 0
-0.5145872 -0.3527039 1.0989070 0
-1.0121536 0.2620960 0.8742162 0
-0.6976405 -0.2095095 1.0286596 0
-0.5389696 -0.2824737 1.0125853 0
0.7466819 -0.0582392 0.8711601 0
-0.3329267 -0.2973196 0.9737968 0
-0.4901025 -0.3792932 1.1341320 0
0.6484612 -0.0105994 0.7163609 0
-0.1783177 -0.4307651 1.0956210 0
0.4806158 0.0285814 0.7145299 0
-0.9261580 0.1034554 0.8837183 0
-0.7223825 -0.1887603 0.9869746 0
0.1401296 0.0913079 0.6026068 0
2.5302413 -0.6147448 3.1075413 0
1.5947312 -0.6515772 2.6308825 0
-1.5837533 0.0627226 1.3221184 0
-1.6120882 0.4606460 1.1136416 0
0.6540883 -0.1718164 0.9132940 0
0.1975970 -0.6355711 1.5422503 0
-1.3533697 0.4969789 0.9540971 0
-0.8133418 -0.2691634 1.1402718 0
1.6352469 -0.6497695 2.4669874 0
-1.1171293 0.3615417 0.8697511 0
-1.4577889 0.2002657 1.1361320 0
-0.4584681 -0.4338775 1.1622355 0
-1.1251963 0.2086303 0.9402640 0
-1.0172200 0.0870087 0.9534903 0
0.7094664 -0.3153751 1.0940011 0
-1.4765884 0.4876890 1.0608957 0
-0.9245580 0.0986108 0.8787348 0
1.7621630 -0.0468120 1.3147955 0
-1.2808963 0.4131869 0.9580359 0
-1.4019668 0.5388833 0.9209794 0
-1.3442303 0.2340013 1.0619290 0
0.5239229 -0.5554996 1.3735064 0
-0.2042220 -0.4433278 1.1476671 0
-1.7484921 0.5249928 1.1918590 0
-1.5529308 0.2194077 1.1725992 0
-0.8566542 -0.0882953 0.9878584 0
-1.6826448 0.2038913 1.3171935 0
-0.3816509 -0.1576068 0.8410069 0
-0.0355995 -0.5945353 1.4416530 0
1.5209593 -0.7232175 2.2107100 0
0.7810137 -0.1305193 0.9039484 0
-1.2214836 0.4143361 0.9367416 0
0.4298311 -0.6775026 1.6451325 0
-1.6009576 0.1308829 1.3739399 0
-0.5165713 -0.1705755 0.9025388 0
-1.1041312 0.1195034 0.9931350 0
0.9176559 -0.0809826 0.8949808 0
1.2326893 -0.5886409 1.8243364 0
0.7568431 0.2738007 0.7062407 0
0.2278108 -0.6547500 1.5720054 0
-0.4301350 -0.5355645 1.4366393 0
0.6119198 -0.0728663 0.8212656 0
-1.2558410 0.1785645 1.0356357 0
1.0101509 0.0937369 0.8727239 0
-0.8140227 -0.1905399 1.0467010 0
0.6469016 -0.0858139 0.8448834 0
-0.1994464 -0.4537201 1.2116686 0
1.6944450 -0.4545543 1.9397407 0
-1.1032562 -0.1398963 1.1653171 0
0.9378217 -0.3586563 1.2562809 0
1.1767724 -0.6731721 1.9716440 0
0.4158966 -0.6125277 1.4767669 0
1.5377643 0.4706163 0.8275632 0
-0.2629143 -0.4043266 1.0858442 0
-0.4567267 -0.2371533 0.9203832 0
-1.0952716 0.3006980 0.8960855 0
0.4859866 -0.0647905 0.7776102 0
-1.2193823 -0.1375569 1.2237952 0
0.8724846 0.1238377 0.9397957 0
-0.8295651 0.0367838 0.8934477 0
0.2626898 -0.5866172 1.3952574 0
0.7474948 -0.3704689 1.1734515 0
-3.1810286 -0.5512173 3.7979455 0
-2.7684855 -0.3946764 3.1818278 0
1.6827129 -0.2089156 1.2963623 0
0.9119236 -0.2451731 1.1008848 0
-0.9373879 -0.3178338 1.2748957 0
1.3829786 0.0132059 1.1273220 0
-0.4587438 -0.5339637 1.3652266 0
-1.3753136 0.1382926 1.1294795 0
-2.6691682 -0.3397641 3.2129915 0
-1.5421147 -0.3769252 1.8561631 0
0.6377550 -0.3628248 1.0050851 0
-1.2480996 0.4439299 0.9618627 0
0.6003304 0.2827400 0.6821257 0
-1.4274838 0.0623483 1.2094059 0
-0.9259826 0.5977280 1.0590570 0
0.7123204 -0.4204100 1.2375181 0
-0.2659665 -0.4722685 1.3147695 0
-0.1941221 -0.4523827 1.0774530 0
-0.0282666 -0.4149325 1.1289874 0
-1.1652963 -0.3331739 1.3786963 0
1.0827522 -0.2474269 0.9662658 0
-0.6431653 -0.5921388 1.5973411 0
1.3903297 -0.3282560 1.1530976 0
-0.4905083 -0.3105822 1.0375501 0
-0.9114108 -0.5007651 1.4967241 0
0.6524560 -0.4581059 1.2716072 0
1.2828352 0.6085198 0.8388289 0
-1.3009969 0.5534784 0.9293678 0
-0.8649322 -0.3176739 1.2487595 0
-1.0521759 -0.1637743 1.1514696 0
-1.1200230 -0.1188254 1.1517190 0
-1.6066524 0.0473851 1.4751818 0
-0.2516735 -0.6482092 1.5579526 0
-1.2184274 0.4904063 0.9052001 0
-0.5008990 -0.3940961 1.1251482 0
-0.6564043 -0.3643124 1.2399402 0
-1.4914908 -0.2798095 1.5071074 0
-1.2489491 -0.4419414 1.4837327 0
-0.3568176 -0.5286843 1.3988963 0
-1.1126584 0.3590017 0.8682216 0
-0.0125543 -0.4326293 1.0892707 0
-0.9440852 -0.1686750 1.0903442 0
0.7692716 -0.3003738 1.1260282 0
0.4908782 -0.4315751 1.2052259 0
0.9582933 -0.2149690 1.1143645 0
0.8654957 -0.1185472 0.9992682 0
0.9627561 -0.6868821 1.1499776 0
-0.7644630 -0.2394616 0.9668322 0
-1.0920846 -0.0743925 1.1182462 0
-0.9680692 0.0871825 0.9309351 0
-0.6553390 -0.0655294 0.8632072 0
1.4680126 -0.6018992 1.2973189 0
0.9792476 -0.6613137 1.8633081 0
0.5953844 -0.5954676 1.4444369 0
0.7260815 -0.7180756 1.6575024 0
1.2159461 -0.3329970 1.0452503 0
1.4400398 -0.3484731 1.1789290 0
-0.6929422 0.1134714 0.7682580 0
0.8410898 -0.1740099 0.9984189 0
0.4238754 -0.6889480 1.7439241 0
2.0258012 0.8382363 1.0554806 0
1.2242079 0.1893823 0.9413177 0
0.0123058 -0.7601295 1.9361145 0
0.6090062 -0.6747835 1.5081246 0
1.0717565 -0.1963121 1.1308753 0
1.4528002 -0.3822540 1.2278265 0
1.3273463 0.0904492 1.0191641 0
-0.9607396 -0.3940630 1.2886943 0
-1.2339889 0.1685180 1.0557618 0
-1.4693362 0.2720138 1.1677052 0
-0.6413509 -0.1288510 0.9250595 0
-0.3818697 -0.3422079 1.0776670 0
-0.9124494 0.0598615 0.9299324 0
-1.2709615 -0.6381811 1.4913863 0
-1.0215161 0.1367249 1.0019205 0
-0.5933725 -0.6434906 1.7407007 0
-0.4449023 0.1715554 0.6532441 0
-0.4245517 0.1252063 0.6776723 0
-1.3971566 0.0259974 1.2122647 0
-0.6987172 0.0899419 0.7832472 0
-1.0749109 -0.1994756 1.1948559 0
-0.7720638 0.2924896 0.7476954 0
-0.9982308 0.4340801 0.8019088 0
-1.2000824 0.0586430 1.0682168 0
-0.3619141 -0.2769538 0.9341114 0
-0.0126705 0.0639929 0.5905281 0
0.0226991 -0.1950564 0.8217444 0
0.9710056 -0.1869572 1.0685083 0
1.1692522 -0.0533609 1.0036410 0
0.8330716 0.0720175 0.8659874 0
1.7137966 -0.7051703 2.1024065 0
-1.0054049 0.0353591 0.9827398 0
-1.1830438 0.1123750 1.0335352 0
-1.2054349 -0.1404592 1.2487185 0
-0.8522184 0.1623758 0.8382710 0
1.2565449 0.1012565 1.0032856 0
1.3865627 -0.5766901 1.7200096 0
-1.2109309 0.4274217 0.9030007 0
-0.8848831 0.2616918 0.7955474 0
-0.5880575 0.1514815 0.6806237 0
1.8020643 -0.6684782 2.0917621 0
0.8486921 -0.1416168 0.9753414 0
-0.7578629 0.2566352 0.7146956 0
0.5051966 -0.3702475 1.0711241 0
0.5949863 -0.7231301 1.2735078 0
0.9279552 -0.6716461 1.3290497 0
-1.2879692 -0.7310249 2.0534551 0
1.5504043 0.2163830 1.1079277 0
-0.8067211 0.2263471 0.7934715 0
-0.9984987 0.2743988 0.7908604 0
-0.5919047 0.0378250 0.7162259 0
1.0924147 -0.6222431 1.7915807 0
-0.6387044 0.1119005 0.7455958 0
-0.7704412 -0.2154045 1.0205113 0
-0.0758369 -0.5898579 1.4469500 0
0.0904161 -0.6283031 1.4759601 0
0.9376189 -0.1796689 1.0537775 0
-1.0266225 -0.5522833 1.7339817 0
-1.4377884 -0.0825747 1.3508477 0
0.4060729 -0.2886301 0.9675336 0
-0.5647867 0.2301379 0.7406223 0
1.5876859 -0.1618327 1.2376167 0
2.2977948 -0.2106038 2.3466740 0
1.2621123 0.4554786 0.8288814 0
-0.9271278 0.1772553 0.8590577 0
0.7866917 0.0569346 0.7612064 0
-0.9140649 0.3106780 0.7809723 0
1.8341571 -0.7016691 2.3695693 0
-0.5184312 -0.4026544 1.1699262 0
-0.5096469 -0.1012365 0.8197054 0
0.3080942 -0.4728955 1.2258469 0
-1.2406584 0.4745314 0.9363903 0
0.7561903 0.2160046 0.7533113 0
1.8314853 -0.5727107 2.2897952 0
-0.4985847 -0.3925902 1.1175700 0
0.7426800 0.2343405 0.6895518 0
0.9701619 -0.2556626 1.1217983 0
-1.1767530 0.0321227 1.1106659 0
0.6680046 -0.3291134 1.1138833 0
-0.9539853 -0.3684112 1.3374674 0
-0.7854660 0.0377193 0.8782461 0
-0.7494434 -0.4246283 1.2751480 0
-0.6877204 0.0898157 0.9013868 0
-0.9099358 -0.0340197 0.9728699 0
0.4465035 0.1292856 0.6184045 0
-1.0098274 -0.1613458 1.1287962 0
1.5989355 -0.4713793 1.3254849 0
1.4018149 -0.3625239 1.1453574 0
-0.2892266 -0.6171860 1.7888952 0
1.2239991 -0.5695182 1.0631163 0
1.4531504 0.6757648 0.8772597 0
-0.2898990 -0.3901523 1.2603325 0
1.3573432 -0.4768528 1.1573111 0
1.1321477 0.3932561 0.7749977 0
-1.1527026 -0.5971747 1.8668320 0
-0.8376634 0.3824823 0.8022955 0
-0.7826442 0.2500067 0.8406177 0
-0.2722493 -0.5157895 1.1490072 0
0.1517224 -0.1955185 0.8009278 0
-0.7244696 -0.2747516 1.0626765 0
-0.4634154 -0.3350255 1.0249147 0
-1.0044893 -0.0085475 1.0140845 0
-0.2369478 -0.7102789 1.7495906 0
0.2698608 -0.4165749 1.1629646 0
-0.9488874 -0.3051194 1.2608398 0
-1.0601313 -0.2291288 1.2394646 0
0.9442219 -0.2079253 1.0789682 0
-0.6033970 -0.5797368 1.5693308 0
0.1374028 -0.0173045 0.6672221 0
2.3438752 -0.5159345 2.4761040 0
-0.9333462 -0.6576392 1.9349384 0
0.4195355 0.0252459 0.7130826 0
-1.1167077 0.2233802 0.7669078 0
-0.5317584 -0.4826083 1.2907015 0
-1.1891338 -0.5218064 1.7000647 0
1.7453766 -0.2949984 1.3585386 0
1.3186358 0.1476294 0.9969276 0
-0.5862548 -0.5637395 1.5341691 0
-0.8520846 -0.5506359 1.5957776 0
0.6854509 0.0279277 0.8130190 0
1.2571601 0.3602212 0.8532247 0
-1.2565513 -0.1262890 1.1749269 0
-0.9482140 0.2877365 0.7714424 0
0.9066817 -0.2439049 1.0780370 0
0.6192404 0.2683629 0.7196311 0
0.3838606 -0.1326843 0.8180400 0
-1.3961284 -0.0791549 1.2824061 0
-0.3227108 -0.4527703 1.2082038 0
-0.3674391 -0.4465590 1.2480648 0
-1.5111709 -0.2073510 1.5898478 0
-0.3255624 -0.1059436 0.7647007 0
0.9279339 0.3526436 0.7525257 0
-1.1405599 -0.1418044 1.1958245 0
-1.0935749 -0.1864514 1.2140003 0
-0.2164092 -0.3489169 0.9956468 0
-0.4846511 -0.5015348 1.4088424 0
0.6967877 -0.1873630 0.9098933 0
-0.4034922 -0.4257915 1.1520176 0
-0.5583481 -0.2309474 0.9781466 0
-0.2395224 -0.5094534 1.2219665 0
1.2662903 -0.4660710 1.2197213 0
-0.8956457 -0.1281186 1.0431602 0
-0.8436901 0.3081738 0.7383287 0
1.3411347 -0.7629508 1.8596120 0
-1.0704979 -0.0223892 1.0517581 0
-0.1654716 -0.4458677 1.2603419 0
1.9594175 0.7926100 1.0663992 0
1.5348644 -0.7107252 1.8595402 0
-1.5408738 0.7577479 1.0462434 0
-0.9900444 0.0186904 0.9928132 0
1.5629362 0.4283911 0.9926220 0
0.7972307 -0.7327350 1.8101598 0
1.5117251 -0.6685924 1.7651193 0
1.3439966 0.2784613 0.9388438 0
1.3178449 -0.4279107 1.1050235 0
1.2431778 -0.2984436 1.0780082 0
-0.4168193 0.2063794 0.6913291 0
-0.5703865 -0.6054838 1.6354525 0
-0.5665445 0.3082257 0.6713709 0
-0.6144948 0.2626516 0.7150595 0
-0.6259989 0.2477458 0.7340245 0
-1.0914371 -0.0064117 1.0711385 0
-0.4974972 -0.6918657 1.6449736 0
1.6686860 -0.6383381 1.5452943 0
-0.7826097 0.2864557 0.7371971 0
2.0645120 1.0350078 1.1234455 0
1.4554726 0.0201475 1.1252874 0
0.5235765 -0.3705892 1.0754204 0
1.5163938 0.5440061 0.9256335 0
0.0377097 -0.4410285 1.0708344 0
-0.5336550 0.0429452 0.7005650 0
1.0220902 -0.1791793 0.9277249 0
-0.7964669 0.1831046 0.8102707 0
0.1270846 -0.1907042 0.8081917 0
0.5900496 -0.3190504 1.0555937 0
1.0178328 0.1786008 0.8423977 0
0.4006200 -0.5045681 0.9840340 0
-0.6827982 0.0286123 0.7919725 0
-0.8302563 -0.2215709 1.1234019 0
-1.0077649 -0.0744470 1.0653554 0
-0.4285006 -0.3962412 1.2460548 0
1.3763566 0.3079228 0.9632640 0
-0.8988031 0.2258188 0.8252936 0
1.1209215 0.3136349 0.8187496 0
0.4402173 0.1914843 0.6675868 0
-0.7805793 0.1565900 0.7762576 0
0.2063591 0.0839988 0.5994992 0
-0.0857411 0.0301195 0.6179501 0
0.2373464 -0.1869067 0.8041213 0
1.5233636 -0.4771507 1.4828380 0
-0.9519607 0.2440369 0.6928350 0
-0.1031656 -0.5648567 1.4302447 0
-0.8497479 0.1077878 0.7877873 0
-0.7838524 -0.3047014 1.1580670 0
-0.4458962 -0.4940527 1.3126762 0
0.3782565 -0.6168479 1.4889657 0
0.2376113 0.0214164 0.5897014 0
-1.0489762 -0.4053729 1.3943548 0
-1.4012959 0.4081471 0.8059054 0
-0.2400700 -0.3582855 1.0219449 0
1.4470807 0.4134754 0.8840736 0
-1.0735689 -0.0164961 1.0511582 0
-0.6278697 -0.2758902 1.1495038 0
-1.3219049 -0.5538721 1.6335120 0
-1.4630178 -0.6097279 2.2824996 0
0.8021302 0.3929705 0.6893535 0
1.9567689 -0.6117402 2.2945356 0
-1.3046426 -0.2839037 1.4851977 0
-0.9689165 0.2442368 0.8066719 0
-0.1725013 0.2270455 0.7268289 0
2.0673802 -0.5423517 2.4045801 0
-1.0631841 0.2242356 0.8526362 0
1.0490421 -0.6983340 1.9460613 0
-0.7803894 0.1661591 0.7710330 0
1.0404452 0.1424479 0.8886945 0
-0.8377094 -0.1310512 1.0019240 0
-1.3999256 -0.1058346 1.3053706 0
-1.1350293 0.1498339 0.9737022 0
-1.0266001 0.0329998 1.0099610 0
-0.6154329 -0.2090033 0.9970160 0
1.2397305 -0.6019961 1.8937917 0
0.4147083 0.1236906 0.6075175 0
-0.0620075 -0.1094930 0.7169682 0
1.0244517 0.1701820 0.8592845 0
-1.4034035 0.4135776 0.9920490 0
-0.4490005 0.1479715 0.6502275 0
-1.6576482 0.1149751 1.3200430 0
-0.7420278 0.1654023 0.7484306 0
-0.9986098 0.2549431 0.8564500 0
-0.9116062 -0.0952266 1.0371919 0
2.8415623 -0.4858981 3.2519350 0
-1.7079093 -0.0465687 1.5040729 0
-1.1871350 0.2647603 0.9482283 0
-1.3845176 -0.1719546 1.3645781 0
-1.5307276 -0.1224263 1.5022110 0
2.1141944 -0.2339362 2.0782449 0
-2.3023479 -0.3804937 2.5712872 0
-0.5478255 -0.3645489 1.1594237 0
-0.9569052 -0.3637554 1.3462515 0
-1.4057312 -0.6256408 2.3116281 0
-0.8857535 0.2718850 0.8031477 0
-0.8634905 -0.1397688 1.0321305 0
-0.7000446 -0.1285387 0.9408793 0
-0.7988104 -0.4114270 1.3053827 0
-1.2715063 -0.0083978 1.1842217 0
-0.6951734 -0.1544360 0.9662747 0
0.7947128 0.3537529 0.6521206 0
0.1456534 -0.6400577 1.7958968 0
-0.2622933 -0.6043740 1.7072059 0
-1.2048193 0.5221974 0.8740541 0
-0.4771650 -0.5421934 1.5220237 0
-0.8170993 0.3642248 0.7489893 0
-1.1068192 0.2936969 0.8942576 0
-1.0446100 -0.1651386 1.1418606 0
0.5714843 0.2533725 0.6112734 0
-1.3016945 0.5554311 0.9266887 0
-0.4907806 -0.0057503 0.7094607 0
-2.2974133 -0.4968842 2.5783181 0
-1.5009195 -0.2641055 1.6339145 0
0.7597669 -0.1599864 0.9326208 0
0.9631228 -0.1771618 0.9902372 0
1.4052231 0.0841514 1.0349656 0
-1.3858827 0.1852233 1.1132307 0
1.4438909 -0.1982763 1.1621360 0
-1.0513531 -0.0196118 1.0513275 0
-0.8601617 -0.2126851 1.0926988 0
1.0835822 -0.7405336 2.0655682 0
-1.1570957 -0.2245772 1.2822094 0
-1.2617235 0.5999240 1.0659122 0
-0.5125754 -0.3781160 1.1147296 0
0.3355730 0.2097260 0.5990442 0
-1.3971453 0.1193338 1.1458561 0
0.3035713 -0.5091630 1.2639519 0
-0.5875677 0.2315316 0.7260262 0
-0.6676224 -0.3773189 1.2213429 0
0.1346424 0.1159769 0.5279638 0
-1.2539868 -0.2282392 1.3830141 0
-1.0162616 0.4506293 0.8136933 0
-0.2254921 0.0581337 0.5732450 0
-0.8955870 -0.1552303 1.0712856 0
-0.9008147 0.2379333 0.8305343 0
-0.5575188 -0.4167406 1.2401450 0
-0.5244299 -0.3254729 1.1025742 0
1.5370866 -0.2029017 1.2345735 0
-0.4155506 -0.2965126 1.0002595 0
0.8762619 -0.2512231 0.9191159 0
-1.3191851 0.5907263 0.9461186 0
-0.7789037 -0.2033221 1.0578867 0
-0.8195456 0.0265780 0.8828957 0
1.5229859 -0.4609556 1.2678845 0
1.4375075 -0.2353731 1.1407562 0
1.5902803 -0.3647932 1.2886395 0
-1.5408474 -0.2050464 1.4899243 0
-0.6829239 -0.5312281 1.5481713 0
-1.0832148 -0.2671881 1.2940081 0
1.4256920 -0.4784149 1.6606557 0
1.3917863 -0.6788834 1.6142178 0
1.4062098 -0.6597440 1.6233191 0
-1.0652255 0.4470797 0.8956147 0
0.6127709 -0.2466787 0.9459906 0
-0.9614309 -0.1921223 1.1390014 0
-0.6184602 -0.5458218 1.7459763 0
2.0560572 -0.5270197 2.0605421 0
-0.3057992 -0.2443974 0.8519991 0
-0.8905234 -0.2770014 1.1850015 0
-0.4180282 -0.2985841 0.9982851 0
1.0878412 -0.2164625 1.1541233 0
0.2265977 -0.6801545 1.6712651 0
0.5087165 0.1275881 0.6850813 0
0.1408964 -0.2950371 0.9612823 0
-1.0425038 -0.4314689 1.5410161 0
-0.4608369 -0.1742081 0.8912048 0
-0.7277234 -0.2119556 1.0456376 0
0.2647417 -0.4922565 1.4276601 0
1.5138462 -0.5369290 1.3364108 0
-0.3907659 0.0377996 0.6313582 0
-0.3007915 -0.2432381 0.8781844 0
0.9705173 -0.1509373 1.0182045 0
1.2529427 0.0737154 0.9704153 0
-1.2750080 0.5229730 0.9091274 0
-1.2240404 -0.6277153 1.7570206 0
1.8102202 0.8041383 0.9611960 0
0.3785320 -0.2891575 0.9366045 0
0.3326438 -0.5915587 1.5513883 0
1.2441941 -0.4273781 1.0735595 0
-0.5976649 0.1785955 0.6800676 0
1.1635998 0.2491245 0.8367108 0
-1.4645573 0.5877633 1.0138283 0
-0.8548648 0.2733154 0.7783724 0
-0.7609088 -0.1130140 0.9688829 0
-1.3738697 0.5382653 0.9538253 0
1.1830063 0.4804313 0.7545153 0
0.4853491 -0.0347408 0.7975103 0
-1.4399565 -0.6602336 2.3976922 0
-0.1177699 -0.1537553 0.7230285 0
-0.2881572 -0.1137703 0.7314777 0
-0.1039275 -0.5229409 1.2638021 0
1.3515999 0.3182617 0.8770988 0
-0.3399039 -0.2089643 0.8496565 0
0.1899093 -0.5344328 1.4186292 0
-2.1274846 -0.1631041 2.1365964 0
0.9009705 -0.0921315 0.9373195 0
-0.5949466 0.1095070 0.6849301 0
-1.3898677 -0.2153795 1.4225887 0
0.6654025 -0.1618370 0.8838419 0
-0.6335393 -0.4825921 1.4103394 0
-0.3005514 0.0611585 0.6604924 0
-0.4949523 -0.0087915 0.6970652 0
1.3348346 0.1796731 0.9545195 0
-0.8940907 0.1406086 0.8379409 0
