# .PCD v.7 - Point Cloud Data file format
VERSION .7
FIELDS x y z rgb
SIZE 4 4 4 4
TYPE F F F F
COUNT 1 1 1 1
WIDTH 98
HEIGHT 1
VIEWPOINT 0 0 0 1 0 0 0
POINTS 98
DATA ascii

0.1225438 -0.1133270 1.0409511 0
0.0799673 0.0921856 1.0249746 0
-0.1170319 -0.0552744 0.8959238 0
0.0963191 0.2133301 1.0828011 0
1.7743028 0.5119545 1.6831897 0
0.1817224 -0.1331610 1.0246191 0
-0.0613841 0.2763226 1.0326489 0
-0.0684245 -0.0218971 0.7814733 0
0.2226970 0.3141486 1.2879726 0
0.1197855 -0.0960377 0.7675012 0
0.0355566 0.0846465 0.9656321 0
-0.3393285 -0.2020774 0.7582000 0
-0.0285528 0.0771905 0.1602330 0
-0.0775740 -0.0400672 0.9192945 0
0.2265901 0.3787883 1.0689377 0
-0.1093162 -0.0365766 0.8809507 0
-0.2370262 0.0166082 0.9980685 0
1.4312308 0.1554321 1.8261461 0
-0.3103759 -0.2218969 1.0803524 0
0.0948505 0.2573142 0.8573996 0
0.1960690 0.4131837 1.0110576 0
0.2810508 0.4332247 1.0192055 0
0.2535578 0.4554000 1.2321322 0
0.1058597 0.1128533 0.1780623 0
0.1502417 0.2622673 1.0491846 0
0.5308903 -0.1137992 1.1412388 0
0.2963618 0.3088636 1.0865256 0
0.2945827 0.1995848 0.7326726 0
0.1581996 0.2006499 1.0225205 0
0.0834622 0.1708452 1.1491168 0
0.0868394 -0.0776467 0.9785751 0
0.2000034 0.3053802 0.7649111 0
0.8178698 0.0876789 1.0661225 0
0.1131263 0.1640420 1.0686762 0
0.2131078 0.4191802 1.2730802 0
0.1397451 -0.0088527 0.8445836 0
0.1068624 0.4700598 0.7873629 0
0.2028834 -0.2560421 1.0265888 0
0.0854107 0.2266586 1.2075441 0
0.1973090 0.3102245 0.7416347 0
0.2218047 0.3251996 1.0913382 0
0.1524825 -0.1613470 0.8958799 0
0.0670865 0.0416474 1.0784789 0
-0.0575578 0.2104636 0.7205739 0
0.1464918 -0.1887596 0.9627048 0
0.4383633 0.3371080 1.8306715 0
0.0704738 0.2157484 1.2264055 0
0.1531216 0.3840607 1.1273422 0
0.2425645 0.3531217 0.9135429 0
-0.2323956 0.0166512 0.8709703 0
0.0907837 0.4451829 0.8685992 0
-0.0859866 0.3092865 1.2089587 0
0.0324446 0.0262210 0.1088113 0
0.0786547 0.0833780 1.0283884 0
0.4583523 0.2210643 1.1755821 0
0.1033158 -0.1011787 0.8424595 0
-0.0871198 -0.0582344 0.8015215 0
0.2463814 0.3855332 1.4798414 0
0.6867644 0.0036851 1.0642872 0
1.0198059 0.2381426 1.2228973 0
-0.0437645 -0.0002247 0.1383382 0
0.7793465 0.0567082 1.0510939 0
0.1247387 0.1483219 0.9784420 0
0.2650597 0.2727139 1.2897359 0
0.1169193 -0.0793483 0.9991018 0
0.1440803 -0.1518470 1.0637187 0
0.2779712 0.3574665 1.3934258 0
0.1099078 -0.0178526 0.9359992 0
-0.1637643 -0.0610816 0.8566320 0
0.2141151 0.2155237 1.1211691 0
0.1499856 0.0008796 0.9539603 0
0.0989808 0.1665165 0.8961827 0
0.0699918 0.2193711 0.7502955 0
0.2137868 0.2040741 1.0358731 0
-0.1125896 0.0591775 0.7911279 0
0.1806200 0.3817235 1.2678964 0
0.1693800 0.4021944 1.1284542 0
0.6208634 -0.0904635 1.1195881 0
-0.1420540 -0.0479711 0.8009676 0
0.1741645 -0.2027940 0.9300653 0
-0.1481143 0.0763513 0.8008218 0
0.1647086 0.5636939 1.1079780 0
0.5004015 -0.0359338 1.0150962 0
-0.0227638 0.1427866 0.8448943 0
0.1917353 -0.1315850 0.9600856 0
-0.1719163 -0.0574715 0.8323860 0
0.1339557 -0.1061877 0.9164004 0
0.2088620 0.3114604 0.9926872 0
0.4184825 -0.1279224 0.8858035 0
0.0537901 0.1660622 0.8054565 0
0.1669171 0.1764346 1.1274891 0
0.1581214 0.5641353 1.4515188 0
0.0736958 0.2155799 1.0000000 0
0.2535082 0.4695802 1.1850973 0
-0.0684704 0.0171839 0.6771445 0
-0.1006042 0.0048278 0.9165199 0
0.2120015 -0.1991310 0.9966348 0
0.2796128 0.5555568 1.4543830 0
