# .PCD v.7 - Point Cloud Data file format
VERSION .7
FIELDS x y z rgb
SIZE 4 4 4 4
TYPE F F F F
COUNT 1 1 1 1
WIDTH 1461
HEIGHT 1
VIEWPOINT 0 0 0 1 0 0 0
POINTS 1461
DATA ascii
0.1881225 -0.1250142 0.2573022 0
0.0720253 -0.0189459 0.3761688 0
0.0503411 0.1082960 0.2722588 0
-0.0090502 0.0712198 0.2550842 0
-0.1501216 0.0608309 0.2060825 0
0.0538605 0.0943711 0.3200531 0
-0.0575487 0.0277882 0.1103930 0
-0.0660175 0.0471234 0.5560418 0
-0.1119622 0.0410674 0.1138181 0
-0.0565354 0.1133968 0.3357623 0
0.0560522 0.0641816 0.2101187 0
-0.1376289 -0.0392687 0.2714958 0
-0.0017826 -0.0813661 0.4027671 0
-0.0341608 -0.0650044 0.9795027 0
0.1544646 0.0136463 0.2736780 0
0.0429348 0.0911877 0.2597159 0
-0.1266341 0.0663194 0.1284259 0
-0.1082798 0.0539023 0.1060656 0
-0.1051623 0.0627591 0.0989395 0
0.0476026 -0.0131076 0.1614544 0
-0.0604149 -0.1408067 0.4186463 0
0.1206522 0.0809780 0.1686059 0
0.0386127 0.1007116 0.2207635 0
-0.3568587 0.0388996 0.4395659 0
0.0563645 -0.0213611 0.2988304 0
-0.0581282 -0.0226843 0.2424952 0
-0.1641633 -0.1065331 0.5728326 0
-0.1205922 -0.0424470 0.1852574 0
-0.4158067 -0.3098072 0.8348211 0
0.1961149 -0.0030208 0.3215980 0
0.0521755 -0.0007955 0.3132196 0
0.0264789 -0.0142426 0.2402859 0
-0.2095506 0.0735441 0.1785441 0
-0.0964197 0.0510645 0.0898611 0
-0.1535719 0.0756326 0.1487308 0
-0.2175645 0.0477658 0.4132576 0
0.0007858 0.0888806 0.2756937 0
0.0891385 0.2833804 0.8636134 0
-0.0691617 0.0436838 0.1009433 0
0.1906938 -0.0702216 0.6085336 0
0.3285162 -0.0437344 1.0987060 0
-0.1319955 -0.0587492 0.1945945 0
-0.3377497 -0.2916133 0.8045658 0
-0.2137718 -0.0889245 0.5126818 0
-0.1826972 0.0040477 0.1909292 0
-0.2738145 -0.0388528 0.2325599 0
-0.1280366 0.0571102 0.1190796 0
0.0711729 -0.0582135 0.6527826 0
-0.0350003 0.0432257 0.2996477 0
0.1305840 -0.0303601 0.3428509 0
0.1102323 0.0841620 0.2756367 0
0.1000661 0.0338345 0.0848623 0
0.0888266 0.0198021 0.3992068 0
-0.2190785 -0.1611224 0.3611947 0
-0.0513652 0.0904338 0.3229751 0
0.0742360 0.0654263 0.3431764 0
-0.1096443 0.0721700 0.1186168 0
0.0248388 0.0834065 0.3402927 0
-0.0805822 0.0288778 0.3678712 0
-0.0497096 0.1010423 0.2995483 0
0.0259636 0.0959739 0.3913236 0
0.1034068 0.0786120 0.2357582 0
-0.0465656 0.0549960 0.3642137 0
0.0537201 0.0740770 0.3305529 0
0.0424246 0.0609918 0.3560973 0
0.0424492 0.0838817 0.2990619 0
0.1518548 0.0465951 0.5358685 0
0.0609936 0.0809359 0.3638963 0
0.0937649 0.0904368 0.2722054 0
-0.1197806 0.0782102 0.1326310 0
0.0898739 0.1007252 0.2607345 0
0.0265268 0.0692571 0.3470908 0
0.0751093 0.1082509 0.2874819 0
-0.0072171 0.0125909 0.4500455 0
0.0019100 0.1155593 0.2546439 0
-0.0149643 0.0840597 0.3567532 0
0.0501964 0.0590225 0.4334686 0
-0.0253087 0.0625734 0.4079971 0
0.0734538 0.0870817 0.3729463 0
0.0211614 0.0425809 0.4244916 0
0.0354204 0.0800485 0.3580221 0
-0.1230236 0.0605259 0.0946772 0
-0.0977493 0.0524336 0.0824149 0
-0.0994405 0.0145387 0.5453448 0
0.1000019 0.0688034 0.3656932 0
-0.1657002 0.0640195 0.1271413 0
0.0548032 0.0800100 0.2616462 0
-0.0185319 0.0597056 0.3040787 0
-0.0102846 0.0092678 0.4564380 0
-0.0074057 0.0699321 0.2752696 0
0.0473375 0.0790439 0.2701769 0
0.1152974 0.0852950 0.2717381 0
0.0038300 0.0666500 0.4281205 0
0.0006510 0.1064830 0.3264486 0
0.0314791 0.0425691 0.4078976 0
-0.0683534 0.0549414 0.2980469 0
-0.0930687 0.0158215 0.4443918 0
-0.0204638 0.0793888 0.3126799 0
0.0588452 0.0941825 0.3336504 0
-0.1344009 0.0700549 0.1374839 0
-0.0431367 0.0603681 0.3639555 0
-0.0134931 0.0802177 0.3048370 0
0.0282710 0.0897190 0.3088669 0
-0.0459553 0.0717317 0.2957827 0
0.0371178 0.0946458 0.2712239 0
-0.1525541 0.0441217 0.1219741 0
0.0266316 0.0854658 0.2948089 0
-0.1409436 0.0810599 0.1597603 0
0.0598541 0.0824106 0.3141867 0
0.0179472 0.0644943 0.3699630 0
-0.1865534 -0.0125752 0.3295418 0
0.0483691 0.0799627 0.2515501 0
0.0315056 0.0611650 0.3572549 0
0.0825647 0.1009292 0.3264079 0
0.0369129 0.0958645 0.2101189 0
0.0666382 0.0771495 0.3517967 0
0.0578894 0.1266727 0.3189536 0
0.0691027 0.0469586 0.4187176 0
-0.0527012 0.0919327 0.3254944 0
0.0687454 0.0605036 0.3226873 0
0.0458104 0.0825492 0.2306951 0
0.0634801 0.0584901 0.2189855 0
0.0443947 0.0898160 0.3221776 0
-0.0096288 0.0486883 0.4929222 0
-0.0111942 0.0793384 0.3467439 0
0.0302959 0.0762910 0.3630106 0
0.0415055 0.0958385 0.4321588 0
0.0459330 0.0705991 0.2267259 0
-0.0278778 0.0793922 0.3967695 0
-0.0263545 0.0914499 0.3716100 0
-0.0001474 0.0986201 0.3023466 0
-0.0408771 0.0823324 0.2690413 0
-0.0010635 0.0868771 0.4316122 0
0.0575292 0.1070590 0.2961426 0
0.0293168 0.0870147 0.2679801 0
0.1162724 0.0877268 0.2851769 0
0.0238433 0.0983968 0.2371375 0
0.0417774 0.0955538 0.3117293 0
0.0534033 0.0916725 0.3021552 0
-0.0745894 0.0545125 0.3877142 0
-0.1098157 0.0757053 0.1293810 0
-0.1482655 0.0694899 0.1309504 0
0.0630357 0.0880702 0.3316660 0
-0.0386969 0.0300737 0.3802194 0
0.0050288 0.1075688 0.2194682 0
-0.0095356 0.0716413 0.3372934 0
0.0031040 0.0771466 0.4654934 0
0.0656828 0.0823362 0.3329181 0
0.0727928 0.0865493 0.2811462 0
0.0596047 0.0961335 0.3847964 0
0.0950918 0.0702340 0.2541732 0
0.1419005 0.0664880 0.2901164 0
-0.1235743 0.0652238 0.1177134 0
0.0922294 0.0903531 0.3367058 0
0.0860855 0.0782045 0.3419018 0
-0.0711785 0.0921214 0.2559718 0
0.0806626 0.0094658 0.3452354 0
0.2036056 0.0602784 0.2742849 0
-0.0496215 0.1023684 0.3024368 0
0.0675446 0.0616341 0.3359307 0
0.0891034 0.0103528 0.3768223 0
-0.1109143 0.0698612 0.1104608 0
0.0016532 0.1174709 0.2597682 0
0.0533516 0.0502978 0.3017176 0
-0.1788241 0.0583599 0.2107935 0
-0.0162020 0.0796174 0.3929192 0
0.0271709 0.0952089 0.4379700 0
0.0521951 0.0168236 0.2194721 0
0.0342064 0.0478676 0.4440719 0
-0.0964036 0.0494296 0.0859352 0
0.1560309 0.0397616 0.2222602 0
0.0938246 0.1071997 0.2783929 0
0.0282619 0.0929611 0.3227835 0
0.0481561 0.0743310 0.3017133 0
0.0853783 0.0249202 0.4057056 0
-0.0531667 0.0432262 0.2416087 0
-0.2470141 -0.0855160 0.2797960 0
-0.0512030 0.0795642 0.3309542 0
-0.0541164 0.0502371 0.3959407 0
-0.2074244 -0.0134255 0.3646447 0
-0.1355213 0.0657555 0.1090398 0
-0.0613413 0.0820025 0.2495748 0
-0.2460588 0.0727071 0.2607452 0
-0.0092151 0.0764016 0.4149048 0
0.0836404 0.0547232 0.3625292 0
0.0701308 0.0078352 0.3798230 0
-0.0576410 0.0788547 0.3109029 0
0.0365345 0.0406047 0.3557903 0
-0.1729477 -0.1250242 0.3524674 0
-0.1587763 -0.1188908 0.3609748 0
-0.0774429 0.0992272 0.2767599 0
0.0603929 0.0220364 0.4539010 0
-0.0700777 0.0763341 0.2780806 0
0.0929464 0.0863708 0.3780514 0
0.0440510 0.0974011 0.2951187 0
0.0137554 0.0784290 0.4428560 0
0.0479222 0.0763103 0.4061465 0
-0.0261478 0.0980906 0.3785040 0
0.0116104 0.0173826 0.4627905 0
-0.1904155 0.0598269 0.1938367 0
0.0396926 0.0773523 0.2756786 0
-0.1280477 0.0543317 0.0985860 0
0.0487087 0.1130029 0.3507653 0
0.0608280 0.0334527 0.3999001 0
-0.0227275 0.0722176 0.3659041 0
0.0113685 -0.0649019 0.4709182 0
-0.1006250 0.0509597 0.1064595 0
0.0457000 0.0688418 0.4037673 0
0.0676482 0.0956120 0.3635697 0
-0.0257874 0.1214783 0.3988808 0
0.0429230 0.0898615 0.3053195 0
-0.0089196 0.0579852 0.4136754 0
0.0614629 0.0567377 0.2317557 0
0.0179264 0.0718370 0.3020441 0
-0.1212509 0.0804305 0.1215110 0
0.0606072 0.0878224 0.3872172 0
0.0540689 0.1255623 0.2370936 0
-0.0077966 0.0546084 0.2632608 0
0.0398013 0.0932982 0.3027903 0
0.0058512 -0.0019965 0.0072502 0
0.0150016 0.0564817 0.3467842 0
0.1885715 0.0436443 0.5006534 0
-0.0636295 0.0547549 0.3978116 0
0.1117828 0.0787877 0.3043445 0
-0.0234037 0.0927277 0.3148522 0
0.0050067 0.1177585 0.2406905 0
-0.0060770 0.0117494 0.4767553 0
-0.0565269 0.1128143 0.4958470 0
0.0325647 0.1005315 0.3639973 0
-0.0371357 -0.0277898 0.4227127 0
0.0015504 0.1032924 0.2412790 0
0.0338016 0.0851041 0.3537472 0
0.0060776 0.0679637 0.4248990 0
0.0205834 0.0766335 0.3718041 0
-0.0145884 0.0715606 0.3671234 0
-0.1171233 0.0290762 0.4848345 0
0.0488111 0.0488158 0.3715657 0
0.0371183 0.1141563 0.2416888 0
0.0651222 0.0796242 0.4339668 0
0.0203399 0.0775006 0.3210660 0
0.0467549 0.0883401 0.3383403 0
0.0027265 -0.0043951 0.1239132 0
-0.0412677 0.0805162 0.2670078 0
-0.0669958 0.0532735 0.2271402 0
-0.0242277 0.0536412 0.3221388 0
-0.0526336 -0.0142571 0.2089175 0
-0.0722794 0.0033118 0.5048593 0
-0.0693115 0.0578136 0.4215087 0
-0.1909495 0.0570410 0.2036327 0
-0.2712823 -0.0604926 0.4298566 0
-0.0640290 0.0854367 0.2574495 0
0.0192267 0.0182427 0.3885183 0
-0.0262777 0.0770973 0.3863316 0
0.0328725 0.0872731 0.3412176 0
-0.0714750 0.0939967 0.3075381 0
-0.1304192 0.0511444 0.0967710 0
-0.0701208 0.0689575 0.4374982 0
-0.0750792 0.0650644 0.4679515 0
0.0064458 0.0970764 0.2604136 0
-0.1251515 0.0536163 0.0971369 0
0.0424777 0.0901296 0.2845640 0
-0.1243511 0.0685547 0.1252802 0
-0.0951692 0.0819216 0.3918845 0
0.0236732 0.0471712 0.4520158 0
0.0445397 0.0807422 0.3490296 0
-0.0242190 0.1019017 0.3186505 0
0.0353937 0.0872189 0.2541528 0
-0.0078303 0.0567163 0.4024083 0
0.1445838 0.0649337 0.2213906 0
0.0215668 0.0813789 0.3475176 0
-0.0694849 0.0538473 0.4462320 0
0.0604209 0.0850779 0.3776739 0
-0.0105320 0.0896370 0.2542661 0
-0.0552015 0.0750375 0.2436826 0
0.1487198 0.0421008 0.1944840 0
-0.1361078 0.0852897 0.1717589 0
-0.1631840 0.0595104 0.1621392 0
-0.0132193 0.0726710 0.3551793 0
-0.0302205 0.1002695 0.1870664 0
0.1126817 0.0679727 0.3361446 0
-0.0191204 0.1041707 0.4023613 0
0.0386164 0.1050270 0.3322741 0
0.0217906 0.1033020 0.3586311 0
0.1134364 -0.0496920 0.2191254 0
0.0030293 0.0990610 0.2989234 0
0.0440541 0.0589730 0.4218127 0
0.0522751 0.0486055 0.3868946 0
0.0341877 0.0669996 0.3972113 0
0.0606951 0.0985097 0.3335259 0
-0.1057628 0.0723995 0.1244645 0
-0.0574732 0.0547448 0.4629538 0
0.1121096 0.0543153 0.0987173 0
-0.0436215 0.0888306 0.2631162 0
-0.0676831 0.0881416 0.2682203 0
0.0296819 0.0834978 0.2554842 0
0.1707423 0.0306790 0.3503567 0
0.0198713 0.0527629 0.3263533 0
-0.0153810 0.0702472 0.2319428 0
-0.0824975 0.0952881 0.5499662 0
-0.2430992 0.0597588 0.2662490 0
-0.0105900 0.0823544 0.3465043 0
-0.1509816 0.0590836 0.1128537 0
0.0408801 0.0024807 0.4456752 0
-0.0272126 0.0222147 0.3936383 0
0.0539437 0.0482637 0.4117659 0
-0.0620462 0.0465467 0.4424697 0
0.0306969 0.0433558 0.3312992 0
-0.0138311 0.0540220 0.2879055 0
-0.1309713 0.0622589 0.1163607 0
0.0499666 0.0822910 0.4285198 0
0.0659976 0.0615647 0.3764572 0
0.0451182 0.0664132 0.4108975 0
-0.2383118 -0.0790584 0.3878852 0
-0.0442663 0.0789628 0.2810175 0
-0.0125896 0.0598177 0.4043324 0
0.0610274 0.0714245 0.2605127 0
0.1268602 0.0337387 0.2542204 0
0.0299149 0.0959750 0.1785691 0
-0.0273248 0.0783303 0.3539779 0
0.0894061 0.0539936 0.3377400 0
-0.0010534 0.0007210 0.0098478 0
0.0467519 0.0851386 0.3255347 0
-0.0967987 0.0388693 0.4317690 0
-0.0463391 0.0584759 0.4076414 0
-0.1112022 0.0541245 0.1000882 0
-0.0269460 0.0958492 0.3609372 0
-0.0359477 -0.0171024 0.0835631 0
-0.0413939 0.0354807 0.3953715 0
0.0476924 0.0947044 0.2563075 0
-0.2111068 -0.0841149 0.4140101 0
-0.0994290 0.0669964 0.1192571 0
-0.0507798 0.0051475 0.1732874 0
-0.0736557 -0.0093551 0.1746170 0
-0.1460715 0.0479494 0.1230889 0
0.0259460 0.0942665 0.2721716 0
0.0212335 0.0487920 0.3981167 0
-0.0548024 0.0870021 0.3376886 0
-0.1080980 0.0577494 0.0878286 0
-0.2493977 -0.0794237 0.3582771 0
-0.0528260 0.0262252 0.4029329 0
0.1053120 0.0447579 0.4064262 0
0.0257074 0.0813095 0.2207588 0
-0.2193157 -0.1454682 0.3734134 0
-0.1213246 0.0636856 0.1249981 0
0.1621811 0.0003430 0.2809508 0
0.0745082 0.0395700 0.2977580 0
-0.1227687 0.0378508 0.0872562 0
-0.0706839 0.0896659 0.1552877 0
-0.0840735 0.0554089 0.1006007 0
0.0026389 0.0909665 0.2170677 0
-0.0737881 0.0270752 0.0693340 0
0.0268961 0.0424227 0.3844692 0
0.0306461 0.0807743 0.4172805 0
0.0051581 0.0001192 0.0090866 0
0.0070742 -0.0011356 0.0051292 0
0.0570355 0.0261403 0.3688585 0
0.0079647 0.0595027 0.3660718 0
-0.1063349 0.0426878 0.0972094 0
-0.0744970 0.0768057 0.2645228 0
-0.0243651 -0.0038826 0.4097568 0
-0.1481885 0.0462995 0.1638831 0
-0.0455581 0.0304194 0.0678778 0
0.0338555 0.0849223 0.3543122 0
-0.0783061 0.0594933 0.3544475 0
0.0420240 0.0601476 0.1598232 0
-0.0566538 0.0341647 0.0706155 0
-0.0518364 0.0853868 0.1414521 0
-0.1213539 0.0637239 0.0996938 0
0.0222344 0.0431229 0.3401977 0
0.0469833 0.0666451 0.3380951 0
-0.1287247 0.0788347 0.1257138 0
-0.0919203 0.0441099 0.1040489 0
-0.1249894 0.0709323 0.1285940 0
-0.0613341 0.0519113 0.3055224 0
-0.0904547 0.1158467 0.3188522 0
0.0971830 0.0004676 0.3369465 0
0.0473555 0.0701643 0.4127690 0
-0.0948822 0.0579843 0.1063250 0
-0.0229809 0.0728040 0.4054402 0
-0.1075773 0.0508714 0.0900286 0
-0.1353887 0.0433769 0.1142847 0
0.0650276 0.0247750 0.2874442 0
-0.0290968 0.0029862 0.1498194 0
0.0243055 0.0612088 0.3198330 0
-0.0707311 0.0773401 0.2813623 0
-0.0486865 0.1014702 0.2896174 0
-0.1048116 0.0438780 0.1042251 0
-0.0067980 0.0672860 0.3459571 0
-0.0874160 0.0596407 0.1175976 0
0.0279101 0.1009093 0.2690406 0
0.0674393 0.0941431 0.3578559 0
-0.1079097 0.0540028 0.1117560 0
0.0309247 0.0198696 0.3040234 0
-0.0823565 0.0444235 0.1157102 0
-0.0826838 0.0364359 0.4142836 0
-0.0505252 0.0082809 0.1166619 0
-0.0281464 0.0191588 0.1875400 0
0.0235215 0.0867349 0.2512077 0
-0.1326222 0.0464513 0.0941272 0
-0.1061799 0.0672172 0.1176501 0
0.0537821 0.0041984 0.0768536 0
-0.0419562 0.0647601 0.2669710 0
0.0024673 0.0000112 0.0086282 0
0.0875783 -0.0015979 0.1671494 0
-0.0173193 0.0290174 0.1198331 0
-0.0005724 0.1012688 0.2184401 0
-0.1801170 0.0429066 0.1559290 0
0.0379627 -0.0173152 0.3249687 0
0.0357408 0.0484961 0.2878738 0
-0.0266243 0.0406816 0.4481757 0
-0.1970340 -0.0894021 0.3364109 0
-0.0960315 0.0505786 0.1140241 0
0.0703652 0.0376574 0.1615116 0
-0.0542890 -0.1298032 0.3897295 0
0.0805479 0.0025250 0.3174922 0
0.0866787 0.0431715 0.0923446 0
-0.1477678 0.0527766 0.1383857 0
-0.0598150 0.0466051 0.3890809 0
0.0814934 -0.0031963 0.3453716 0
0.0630243 0.0550660 0.3312696 0
-0.0110035 0.0799770 0.2856520 0
-0.0585638 0.0556916 0.3782985 0
-0.1188426 0.0345384 0.0912092 0
-0.1238266 0.0358396 0.0935576 0
-0.0243281 0.0641343 0.4077965 0
0.1297729 0.0057705 0.1933047 0
0.0471186 0.0467512 0.3814734 0
0.0420734 0.0793472 0.2967410 0
-0.0154813 0.0752890 0.3239231 0
0.0518339 0.0261177 0.1329276 0
-0.0553474 0.0744651 0.2434767 0
-0.2119918 -0.1423365 0.4941778 0
-0.2185547 -0.0078404 0.4019700 0
-0.0271250 0.0037363 0.2106560 0
0.0014256 0.0024551 0.0082279 0
0.0056421 -0.0024235 0.0084554 0
-0.0151899 0.0806769 0.3478556 0
0.0367236 0.0452883 0.1755930 0
-0.0494355 0.0879934 0.3149897 0
-0.1533174 0.0838267 0.1522352 0
-0.0978424 0.0681297 0.3227452 0
0.0169331 0.0798560 0.3868740 0
-0.1330789 0.0488431 0.1342348 0
0.0184694 0.0306138 0.4183791 0
0.0574102 0.0083251 0.2914077 0
-0.0667649 0.0830148 0.1777180 0
-0.0800601 0.0742260 0.3231410 0
0.0053598 -0.0038598 0.0176671 0
0.0322939 0.0892173 0.2693838 0
0.0959866 0.0476681 0.2907598 0
-0.0481258 -0.0080591 0.2766265 0
0.0297100 0.0536132 0.3726389 0
-0.1098254 0.0400812 0.1118315 0
0.0118837 -0.0590140 0.3198376 0
-0.1015341 0.0363711 0.4539968 0
-0.1078211 0.0730330 0.1074533 0
0.0035062 -0.0023569 0.0184477 0
-0.0784478 -0.0017374 0.4443325 0
-0.0369515 0.0482542 0.2771966 0
0.0921181 0.0589830 0.3517932 0
-0.1520231 0.0535305 0.1184015 0
0.0473262 0.0903957 0.3019633 0
-0.0779425 0.1041017 0.2807638 0
-0.1348810 0.0797815 0.1346229 0
-0.0132501 0.0997561 0.2660252 0
0.0859115 0.0492332 0.3299311 0
-0.0532971 0.0659185 0.3812667 0
-0.0972228 0.0331812 0.0789889 0
-0.0145978 -0.0037290 0.3449239 0
-0.0497990 0.0405906 0.2284589 0
-0.0277948 0.0816264 0.4142198 0
0.0266529 0.0670340 0.3186756 0
-0.0470043 0.0457414 0.3937105 0
-0.0152043 0.0503595 0.3932327 0
-0.0409629 -0.0269468 0.1364212 0
-0.1047434 0.0643983 0.1286082 0
0.0032500 -0.0023929 0.0070112 0
-0.1453817 0.0662509 0.1079916 0
-0.0621879 0.0686702 0.4478931 0
-0.0549356 0.0869130 0.3571292 0
-0.0153100 0.0805584 0.2694316 0
-0.1355456 0.0572990 0.1087948 0
-0.0094953 -0.0092379 0.0335364 0
-0.1907022 -0.0600163 0.3524032 0
0.1309376 0.0978861 0.3504104 0
-0.0433581 0.0779807 0.2821176 0
0.0509825 0.1187510 0.2245931 0
-0.0131498 -0.0063702 0.0729909 0
0.0199688 0.0785735 0.3950311 0
-0.0195494 0.0919166 0.3396392 0
0.0026967 0.1035083 0.2289777 0
-0.0817618 0.0714252 0.3415147 0
-0.1544809 0.0879438 0.1734576 0
0.0650579 0.0679231 0.4105382 0
-0.0326838 0.0528881 0.4076478 0
0.0345888 0.1045609 0.2208696 0
-0.1246250 0.0410679 0.1064152 0
0.1320094 0.0001670 0.2411323 0
0.0698471 0.0902221 0.2643040 0
0.1101997 -0.0088718 0.1991424 0
0.0136834 0.0647941 0.3588956 0
-0.1375130 0.0594694 0.1414441 0
-0.0759945 0.0866182 0.2968380 0
0.0638111 0.1004194 0.2616933 0
-0.0445579 0.0129766 0.2181252 0
-0.0133269 0.0671073 0.3459168 0
-0.1171323 0.0615127 0.1183155 0
0.0291531 0.0662285 0.3432619 0
0.0010325 0.1062473 0.2493417 0
0.1084360 0.0336913 0.3391880 0
-0.0673332 0.1040094 0.1859336 0
0.0022406 0.0935630 0.2222962 0
-0.0242297 0.0355752 0.3864919 0
-0.1047229 0.0505387 0.1226505 0
-0.0684625 0.0856115 0.1824194 0
-0.1374367 0.0586980 0.1334000 0
0.0778634 0.0739588 0.2759542 0
0.1271161 0.0566012 0.2702866 0
0.0677467 0.0557259 0.3289582 0
0.0217148 0.0928570 0.3800451 0
-0.1001891 0.0411230 0.0979492 0
0.0295878 0.0836533 0.2770347 0
-0.0212484 0.0936129 0.2927748 0
0.1120024 0.0254987 0.1869298 0
-0.0620091 0.0757400 0.4288951 0
-0.0870078 0.0798058 0.2942455 0
0.0008693 -0.0540642 0.3433506 0
0.1220886 0.0595243 0.2674640 0
-0.1558905 0.0600645 0.1198707 0
-0.0242704 0.0891365 0.1871435 0
0.0267381 0.0880414 0.2372866 0
-0.0128483 0.0976358 0.3461902 0
-0.0262746 -0.0827158 0.2198191 0
0.1377016 0.0621329 0.2109447 0
-0.1176552 0.0661453 0.1298763 0
-0.0505050 0.0965008 0.2019790 0
0.0110073 -0.0014521 0.0162821 0
-0.0534470 -0.0124910 0.1721885 0
-0.0275618 0.0596691 0.3590015 0
0.0590288 0.0682288 0.2222360 0
0.0367077 0.0374607 0.3698958 0
0.0691920 0.0632778 0.3706414 0
0.0293813 0.0154523 0.1986324 0
0.1268099 0.0362263 0.2280895 0
0.0362580 0.0903874 0.2587886 0
-0.0918823 0.1000643 0.1815738 0
-0.1096393 0.0580572 0.0895602 0
0.0288300 -0.0072329 0.1689129 0
-0.0381280 0.0303643 0.2964665 0
-0.2269049 -0.1191015 0.3335429 0
-0.0816770 0.0806273 0.3240040 0
0.0250305 -0.0150685 0.3155440 0
-0.0698214 0.0242334 0.0492836 0
-0.0058588 0.0001387 0.0380032 0
-0.1235969 0.0596411 0.1226902 0
0.1212581 -0.0017628 0.2535748 0
0.0472223 0.0821768 0.2275870 0
-0.0444957 0.0968978 0.4126556 0
-0.0908481 0.0620800 0.0978436 0
-0.1942970 -0.0461536 0.3110369 0
0.0318878 0.0816889 0.3440437 0
-0.0139028 -0.0116382 0.1819191 0
-0.0470046 0.0186153 0.3581127 0
-0.0691177 -0.0256476 0.1265822 0
-0.0276405 0.0209243 0.0689868 0
0.0750279 0.0565740 0.1875566 0
0.0099829 -0.0012191 0.0075376 0
-0.1075420 0.0571156 0.0895125 0
-0.0943690 0.0639615 0.0995087 0
-0.0995640 0.0643150 0.0979782 0
0.0599740 0.0417914 0.3806436 0
0.0472266 -0.0187392 0.3257978 0
-0.0245635 0.0908716 0.3661907 0
0.0054898 0.0799704 0.2403794 0
-0.1315839 0.0736914 0.1446397 0
0.0365031 0.0712734 0.3731528 0
-0.0959071 0.0662820 0.1133358 0
0.1011783 0.0703367 0.2735765 0
-0.0094675 0.0713688 0.3256806 0
-0.1513384 0.0442340 0.1075797 0
-0.0123235 0.0668184 0.3813984 0
-0.0225088 0.0098784 0.4067463 0
0.1362114 0.0784246 0.1397149 0
-0.0661136 0.0605438 0.3364135 0
-0.0560267 0.0601119 0.4073737 0
0.0959600 -0.0014765 0.1999530 0
-0.0190005 0.0604086 0.2727260 0
0.0493292 0.0855883 0.2526380 0
0.0597226 0.0931349 0.3743943 0
-0.0165537 0.0113990 0.0326135 0
-0.1702199 0.0575339 0.1178404 0
0.0035714 0.1093628 0.3291889 0
0.0145506 0.0723307 0.4121704 0
0.0784142 0.0906050 0.3107796 0
-0.1429180 0.0451697 0.1455300 0
0.0556373 0.0589865 0.2859289 0
0.0957346 0.0002140 0.2419883 0
-0.0944876 0.0452832 0.0866503 0
-0.0661965 0.0825456 0.1773017 0
0.0575187 0.0717837 0.3672076 0
0.0022952 -0.0040047 0.0130273 0
-0.0184287 0.0641656 0.2935896 0
0.0053777 0.0390769 0.3663799 0
-0.1386359 0.0440670 0.1557878 0
-0.2047193 -0.0595954 0.3346556 0
-0.0500694 0.0685020 0.2098020 0
0.1276919 -0.0022673 0.2490184 0
0.0544653 0.0199833 0.1172866 0
-0.0409582 -0.0786574 0.3909961 0
-0.0348303 -0.0323648 0.1513332 0
-0.1247449 0.0491634 0.4408442 0
0.0706489 0.0495032 0.1784005 0
-0.0013279 0.0007391 0.0119206 0
-0.1286799 0.0427285 0.1559372 0
-0.1438477 0.0792326 0.1423698 0
-0.0494036 -0.0036941 0.3867343 0
-0.0557041 0.0528493 0.4090807 0
0.0308308 0.0259666 0.2992005 0
0.0082447 0.0135395 0.3349872 0
-0.0419235 0.0048929 0.1845524 0
-0.0110732 0.0124744 0.1271642 0
-0.0687586 0.0213401 0.2890173 0
0.0129078 0.0790660 0.3504274 0
-0.0250366 0.0973368 0.3300129 0
0.0519241 0.0934422 0.3736148 0
0.0029915 -0.0019549 0.0190027 0
-0.0820988 0.0683328 0.3632458 0
0.0211899 0.0388479 0.4264222 0
-0.0068461 0.0414946 0.4308246 0
-0.2126344 -0.0575736 0.3657072 0
-0.0206103 0.0220609 0.2173996 0
0.0282291 -0.0087806 0.0375316 0
-0.1495999 0.0415221 0.1787370 0
0.0328462 0.0083822 0.1627774 0
0.0623562 0.0549655 0.3897685 0
-0.0807392 0.0000116 0.4484392 0
0.0461341 0.0469955 0.4056208 0
-0.0591598 0.0155545 0.2571236 0
0.0377627 -0.0184176 0.3818045 0
0.0392715 0.0359674 0.4048897 0
-0.0212892 0.0424525 0.3862564 0
-0.0855141 0.0389038 0.3999396 0
0.0137740 0.0268358 0.3871355 0
0.0265327 -0.0237001 0.3783888 0
-0.2042990 -0.0675523 0.3828675 0
-0.0712968 0.0428715 0.3998557 0
-0.1972000 -0.0194535 0.3778296 0
0.0484075 0.0338110 0.1829256 0
0.0040827 0.0612916 0.3983395 0
0.0730995 0.0062931 0.1763975 0
-0.0833731 0.0068478 0.4018635 0
-0.0679806 0.0057583 0.4128237 0
-0.0699553 -0.0008324 0.3959583 0
0.1106683 0.0602491 0.3034863 0
-0.0207248 0.0735116 0.2818205 0
-0.0821872 0.0239063 0.3326132 0
-0.0048219 -0.0187755 0.4404791 0
-0.1149077 0.0562102 0.0897171 0
0.0175440 0.0708855 0.4044755 0
-0.0649512 0.0343684 0.2296795 0
-0.0514077 0.0391519 0.4164872 0
-0.0398396 -0.0567646 0.3698148 0
0.0400117 0.0112634 0.3863964 0
0.0515774 -0.0048305 0.3640870 0
-0.2146495 -0.0626631 0.3896431 0
0.0428135 0.1029302 0.3965223 0
-0.0531258 0.0158082 0.4068798 0
-0.0667679 -0.0357796 0.4507222 0
-0.0326547 -0.0267526 0.2698086 0
-0.2002778 -0.0722280 0.3900231 0
0.0974015 0.0179053 0.3049672 0
0.0873648 0.0344470 0.3280748 0
-0.0258858 0.0030481 0.4047275 0
0.0331036 -0.0501710 0.3457300 0
0.1156397 -0.0195779 0.2565433 0
-0.0512194 0.0067376 0.4147219 0
-0.0426715 0.0053926 0.4082128 0
-0.0284860 -0.0423959 0.3586695 0
0.0471915 -0.0040051 0.3475360 0
0.0731139 0.0658844 0.3550231 0
0.0022317 0.0506642 0.3923577 0
-0.0018556 -0.0026641 0.3570389 0
0.0355729 -0.0372924 0.3502594 0
-0.1562828 -0.0652349 0.2346140 0
-0.0123860 -0.0044194 0.2231774 0
-0.1938367 -0.0836158 0.3526905 0
-0.2078638 -0.1303685 0.3944490 0
0.0479908 0.0211627 0.3054504 0
0.1172764 -0.0383275 0.3034317 0
-0.0611065 -0.0000990 0.2640856 0
0.1104722 -0.0137848 0.2368265 0
-0.0432972 0.0070422 0.4034336 0
0.0593222 0.0339855 0.3864221 0
0.0079528 0.0332793 0.3954396 0
0.0147680 0.0264259 0.3838542 0
0.0053176 -0.0006611 0.0066138 0
-0.0390517 0.0451414 0.3699625 0
-0.1124164 -0.0332524 0.2092244 0
-0.0740940 0.0449181 0.4156703 0
0.0264833 0.0229548 0.3846734 0
0.0368567 -0.0066176 0.2025037 0
0.0261906 -0.0350269 0.4242152 0
0.0207512 -0.0544831 0.4179355 0
-0.0881145 -0.0405081 0.1699367 0
-0.0742093 -0.0267411 0.3960927 0
-0.0681951 0.0134500 0.4187779 0
-0.0244751 0.0047123 0.3945188 0
-0.0192586 0.0108919 0.2066216 0
0.0223020 -0.0060085 0.0274803 0
-0.0444039 0.0117311 0.3986848 0
-0.0109852 -0.0985075 0.4001197 0
0.0789761 0.0671843 0.3306120 0
-0.0047280 -0.0468184 0.4055015 0
0.0046701 -0.0852657 0.3697210 0
-0.1632144 0.0908084 0.1828408 0
0.0049289 0.1133480 0.3715094 0
0.1190580 0.0377426 0.1149258 0
0.0784757 0.0157069 0.1201145 0
0.0795227 0.1603055 0.2749705 0
0.0637755 0.0542989 0.3491066 0
0.0491139 0.0183668 0.3533713 0
-0.0641230 -0.0348457 0.3740061 0
-0.0005407 0.0037795 0.3831712 0
-0.0067936 0.0377270 0.3931921 0
-0.0456457 -0.0607385 0.3900452 0
0.0289595 -0.0178303 0.3103060 0
0.1464176 0.0044223 0.2243666 0
0.0664581 -0.0088817 0.1102848 0
0.0336409 0.0434475 0.4028328 0
0.0195861 0.0348057 0.3854572 0
0.1342745 0.0032563 0.2576356 0
-0.0383858 -0.0210174 0.3851528 0
0.0297590 -0.0152694 0.3453860 0
0.0158878 0.1498202 0.2704044 0
-0.1644681 -0.0891064 0.2785168 0
-0.0007070 0.1094004 0.3414305 0
-0.0160086 -0.0338303 0.1867926 0
-0.0726492 0.0152248 0.4160946 0
-0.1565384 -0.0560837 0.1820483 0
0.0429359 0.0252848 0.3978688 0
-0.1883322 -0.1538435 0.3246663 0
0.1202811 0.0298425 0.2345323 0
-0.1213459 -0.1000343 0.3387691 0
0.0184719 0.0014908 0.2202347 0
-0.0467194 -0.0337229 0.3478439 0
0.1341865 -0.0249685 0.2568890 0
0.1243121 -0.0402475 0.3158252 0
0.0100834 0.0101857 0.4245077 0
0.1252907 -0.0550467 0.3323088 0
-0.0358299 0.0055220 0.3403855 0
0.0282202 -0.0288114 0.3047840 0
0.1398536 0.0146628 0.2235178 0
0.0543789 -0.0578703 0.3959055 0
-0.0362220 -0.0082171 0.3372613 0
-0.0978819 -0.0378822 0.1393584 0
-0.1317878 -0.1277600 0.3309675 0
-0.0271807 0.1142304 0.2088965 0
-0.1688252 -0.0637444 0.3248881 0
0.0918164 -0.0077198 0.3561319 0
-0.0042647 -0.0027650 0.4286334 0
-0.0112933 -0.0117492 0.4369676 0
0.0341348 -0.0038074 0.1842613 0
0.0097826 0.0129440 0.3337720 0
0.1019271 -0.0245462 0.3337447 0
-0.0087771 -0.0399737 0.4288888 0
-0.1473480 -0.1418348 0.3524767 0
0.0784348 -0.0391416 0.2634506 0
-0.0213651 0.0124693 0.3618548 0
-0.0234496 -0.0224270 0.1872367 0
0.0844016 0.0613183 0.3168517 0
0.0847547 -0.0032652 0.2510635 0
-0.1655405 -0.1607174 0.3709146 0
0.0571262 -0.0225087 0.1509937 0
0.1305518 -0.0169053 0.2583820 0
0.0606951 -0.0146339 0.3231265 0
-0.0237854 -0.0595735 0.3287867 0
-0.1696278 0.0667760 0.1664439 0
0.1070699 -0.0128877 0.2472603 0
-0.1780459 -0.1293221 0.2842089 0
0.1247619 0.0224398 0.2302703 0
0.1023164 -0.0140441 0.1876453 0
0.0502171 -0.0369037 0.3177560 0
-0.0405997 -0.0033568 0.3307322 0
0.0274965 -0.0307225 0.3530672 0
-0.1970971 0.0730678 0.1629026 0
-0.0036329 -0.0231220 0.3529547 0
0.0285591 -0.0337726 0.3735838 0
0.1070248 -0.0211041 0.2562165 0
-0.0599201 -0.0232810 0.3291821 0
-0.1225659 -0.1073612 0.3415298 0
0.0327157 -0.0078568 0.1968086 0
-0.0435642 0.0011073 0.1934270 0
-0.1491966 0.0656404 0.0991680 0
-0.0915250 -0.0226696 0.1537839 0
-0.0907110 -0.0272546 0.1246253 0
-0.0033962 0.0511590 0.1874417 0
0.0663314 -0.0011041 0.1319468 0
0.0207870 0.0575187 0.4106874 0
-0.0931778 -0.0250887 0.1370230 0
0.0504618 0.1034965 0.2770247 0
0.0362576 0.0355464 0.1721916 0
-0.0678854 0.0052274 0.4174023 0
-0.0745904 -0.0606662 0.2089507 0
0.0478841 -0.0198359 0.1316854 0
-0.0947624 0.0230840 0.3949948 0
0.0215086 0.0505287 0.4024875 0
0.0479537 0.0314912 0.3790318 0
0.0089360 -0.0026504 0.0123485 0
-0.1174582 0.0622154 0.0983862 0
0.0546257 0.1333001 0.2301312 0
-0.0382797 -0.0092288 0.4081450 0
-0.0631971 0.0113445 0.2702742 0
-0.0503065 0.0586050 0.3865136 0
-0.0072583 -0.0304062 0.1924091 0
0.0598539 0.0831574 0.3694691 0
-0.0038220 -0.0391562 0.3427872 0
0.0230294 0.0016320 0.1890787 0
0.0364000 -0.0109237 0.1065953 0
0.0423230 -0.0464529 0.3805688 0
0.0336741 0.0136772 0.3937265 0
-0.0189013 0.0620767 0.3516813 0
0.0469688 -0.0115704 0.3978053 0
0.0393651 -0.0357743 0.3953151 0
-0.0408390 -0.0451465 0.3391519 0
-0.0501480 -0.0284040 0.3582763 0
0.0038940 -0.0008576 0.3552305 0
0.0576225 0.0587938 0.3539389 0
0.0492169 -0.0145993 0.3308370 0
-0.2560531 -0.1037738 0.3103768 0
-0.1178119 -0.0663226 0.3180568 0
-0.0466932 0.0135149 0.3723089 0
-0.0551650 -0.0308531 0.3812384 0
-0.2102225 -0.1166162 0.3286907 0
-0.2094675 -0.0606891 0.3647041 0
0.1226319 -0.0168993 0.2703809 0
-0.1126495 0.0707325 0.1118727 0
0.0181440 0.0284885 0.3910530 0
-0.0397320 -0.0596165 0.3729932 0
-0.0733568 -0.0416110 0.3783610 0
0.1149025 -0.0155367 0.2820992 0
-0.1694724 -0.0751939 0.3135810 0
0.1072742 -0.0260516 0.2689925 0
0.0885666 0.0331517 0.3410496 0
0.0415426 0.0399128 0.3860846 0
0.0473747 0.0535530 0.3878558 0
-0.1862032 -0.0147337 0.3625700 0
0.0902425 0.0705676 0.3275866 0
0.0137354 0.0003835 0.0134806 0
0.0144764 0.1218076 0.2204481 0
-0.1274069 0.0605987 0.1050577 0
-0.0991922 0.0494759 0.0776475 0
-0.1434810 0.0549487 0.1217023 0
0.1153273 -0.0024889 0.1824747 0
-0.0206944 0.0900566 0.2833342 0
-0.1706954 -0.1108653 0.2657845 0
0.0027108 -0.0040530 0.0135292 0
0.1096378 0.0195775 0.1966047 0
-0.0165195 0.0427205 0.1822439 0
-0.0004070 -0.0037186 0.0177118 0
-0.1265411 0.0699839 0.1267320 0
0.0877554 0.0927984 0.3413985 0
0.1133627 -0.0623861 0.1265638 0
0.1007416 0.0606268 0.2983371 0
0.1215306 0.0604639 0.2494729 0
0.0367171 0.0595562 0.3920311 0
-0.1330756 0.0573715 0.1120441 0
0.0500098 0.0386782 0.3645453 0
-0.1521055 -0.0383318 0.2366190 0
0.0200668 -0.0050909 0.0245168 0
0.0363346 0.0154115 0.2814538 0
0.0396405 0.0130717 0.2795561 0
0.1044268 0.0825381 0.2707592 0
0.0585791 0.0133701 0.1317621 0
0.0063549 -0.0023618 0.0091785 0
-0.0312046 0.0167723 0.3032817 0
-0.0408855 0.0302784 0.1943927 0
0.0675089 0.0850724 0.3129380 0
0.0553098 0.0894088 0.3248480 0
0.0726273 0.1156127 0.3510506 0
-0.0116371 0.0666508 0.3286030 0
-0.0888123 0.0232924 0.4108379 0
0.0669019 0.0855706 0.3562261 0
-0.0616143 0.0555224 0.3597132 0
0.0278254 0.0551316 0.3461591 0
0.0450562 0.0210461 0.1649678 0
0.0507923 0.0242262 0.3530343 0
0.0366663 0.1024343 0.3091628 0
-0.1068622 -0.0231812 0.1756160 0
0.0484627 0.0945710 0.2651343 0
0.0232025 -0.0077827 0.0276647 0
0.0240495 0.1000961 0.3549332 0
-0.0001740 0.0886762 0.2675464 0
0.0319175 -0.0393665 0.3354824 0
0.0000202 -0.0060070 0.1706081 0
-0.0428886 0.0387862 0.2184505 0
0.1347430 0.0710776 0.1302130 0
-0.1566507 -0.1019863 0.3284775 0
-0.0874705 -0.0373365 0.1362486 0
-0.1817885 -0.0708324 0.2386820 0
-0.0334439 0.0037519 0.1305431 0
-0.0659752 0.0571979 0.3455524 0
-0.1453744 -0.0377855 0.2257523 0
0.0204331 0.0347800 0.3338870 0
0.0392241 0.0672143 0.2702784 0
0.0564895 0.0699673 0.2837216 0
0.0384943 0.0406634 0.3810612 0
0.0300785 0.0932077 0.2598698 0
0.0659893 0.0283677 0.2898926 0
-0.1244742 0.0485696 0.0976130 0
0.0267130 0.0280128 0.1305594 0
0.0356677 0.0009351 0.1332643 0
0.0068940 -0.0035982 0.0278984 0
-0.0122328 0.0668616 0.3796612 0
0.0085948 -0.0111861 0.0444701 0
0.0218345 -0.0059269 0.0262920 0
0.0897123 0.0705304 0.3291174 0
0.1128459 0.0115703 0.2798876 0
0.0938762 -0.0104148 0.1655192 0
-0.1611928 -0.0460641 0.3624347 0
-0.0095181 0.0540599 0.3026334 0
0.0773674 0.0166028 0.2565702 0
0.0501603 0.1153749 0.2154620 0
0.0507605 0.0581301 0.3643946 0
-0.0127327 0.0833782 0.3094321 0
0.1087520 -0.0259296 0.2860977 0
0.0462614 0.1228353 0.2286695 0
0.0071937 -0.0024408 0.0342261 0
0.0576211 0.0173784 0.2723854 0
0.1225939 -0.0082455 0.2127026 0
-0.0073196 0.0429467 0.1791985 0
0.0289145 -0.0195312 0.3375476 0
0.0569258 0.0736921 0.3668904 0
0.0271349 0.0466402 0.3921988 0
0.0179353 0.0406442 0.1136125 0
0.0256097 0.0619866 0.2958329 0
0.0404236 -0.0011742 0.1553132 0
-0.0343556 -0.0067232 0.1575001 0
-0.1721791 -0.0404958 0.2777908 0
0.0281700 -0.0162194 0.0454068 0
0.1152374 0.0783203 0.2700565 0
0.0616759 -0.0324915 0.0483968 0
0.0287459 0.0902601 0.2426949 0
0.0033288 -0.0257178 0.0653508 0
0.0614054 0.0826403 0.2524682 0
0.0638022 -0.0091620 0.2957993 0
0.1200292 0.0921632 0.2916030 0
0.0783135 0.0650383 0.2800459 0
0.0435883 0.0865916 0.2736987 0
-0.0772810 0.0631523 0.3786088 0
0.0696830 0.1040697 0.2608788 0
0.0292376 0.0329880 0.3854867 0
0.1037907 0.0762697 0.2313604 0
0.0607017 0.0856721 0.3476239 0
0.0766853 0.1086257 0.2907211 0
0.0870801 0.0808134 0.2750517 0
0.0653916 0.0911617 0.2433161 0
0.0457162 0.0444209 0.2465582 0
0.0229314 0.0783525 0.3136794 0
0.0452443 0.0082527 0.1469211 0
-0.0051480 -0.0923507 0.3211288 0
-0.0452843 -0.0330681 0.1068624 0
0.0106757 -0.0374911 0.2786376 0
-0.0498946 0.0141127 0.2996106 0
0.0368119 -0.0026882 0.5035498 0
-0.0338762 0.0344569 0.2108707 0
0.0668588 -0.0150051 0.1455288 0
-0.0894842 0.0231009 0.3748161 0
0.0411666 0.0497525 0.3266097 0
0.0118272 -0.0632615 0.2631743 0
0.0986072 0.0532415 0.2657089 0
0.0331660 -0.0001481 0.0525610 0
0.1214624 0.0194647 0.2008147 0
0.0429579 0.0167606 0.2565618 0
-0.0450588 0.0153233 0.3140977 0
-0.0150505 -0.0197800 0.3606664 0
0.0465878 0.0268872 0.3028373 0
-0.0318567 0.1084512 0.4280347 0
-0.0504841 0.0039727 0.2108447 0
-0.0384962 0.0290574 0.1939099 0
0.0986655 0.0559391 0.3811257 0
-0.0689396 0.0445641 0.3411030 0
0.0129368 0.0626734 0.3464280 0
0.0585437 0.0437117 0.3964942 0
0.0155791 0.0070804 0.2447854 0
0.0657244 0.0927168 0.2488693 0
-0.0517942 0.0427912 0.2347085 0
0.0271535 -0.0102470 0.2056086 0
-0.0527201 0.0075227 0.2169964 0
-0.0625885 0.0093328 0.2879498 0
0.0073657 -0.0139679 0.1646507 0
-0.0781496 0.0277296 0.3617805 0
-0.1012445 0.0396397 0.4052214 0
0.0641750 0.0027924 0.1197196 0
-0.0577813 0.0020900 0.2494999 0
-0.0817480 0.0691707 0.1497532 0
0.0443624 0.0778750 0.3119932 0
0.0600840 0.0663013 0.3427293 0
-0.1726141 -0.0954850 0.3027280 0
0.0392868 0.0258246 0.4167663 0
0.0133400 -0.0174793 0.1762142 0
-0.0746204 0.0209467 0.3019270 0
0.0417436 0.0462281 0.4209729 0
0.0043338 0.0777403 0.1630827 0
-0.0870072 0.0198621 0.4351213 0
0.0043144 0.0349324 0.1685237 0
-0.0857941 -0.0108236 0.4423868 0
0.0269089 -0.0194477 0.1338163 0
0.0299227 -0.0237017 0.2274710 0
0.0521882 0.0753770 0.4509028 0
-0.0114662 -0.0635707 0.5756726 0
0.0383104 -0.0030547 0.0676139 0
0.0775048 0.0954730 0.3955211 0
-0.0468291 0.0128867 0.2081441 0
-0.0780162 0.0279671 0.3424436 0
0.0461291 0.0113088 0.4474908 0
-0.0715261 0.0248969 0.3062133 0
-0.0536182 -0.0125685 0.2351224 0
-0.0664865 0.0273151 0.2523805 0
0.0446869 0.0907358 0.2436564 0
-0.0679054 0.0130594 0.2333520 0
0.0006166 0.0661686 0.2015827 0
0.0641497 0.0837425 0.3064149 0
0.0277272 -0.0233087 0.1928023 0
-0.0622217 0.0077746 0.2508330 0
-0.0333186 -0.0217365 0.2076005 0
0.0082131 -0.0091210 0.1450109 0
-0.0064854 -0.0101842 0.2915745 0
0.0098571 0.0719733 0.1873136 0
0.0298400 0.0936853 0.2530611 0
0.0210130 -0.0415051 0.2880512 0
-0.0507059 0.0059383 0.2255804 0
0.0246649 0.0009144 0.0339217 0
0.0819675 0.0379560 0.4552765 0
-0.0583058 0.0077372 0.2236447 0
0.0293607 -0.0219607 0.1548247 0
-0.0510363 0.0349206 0.4789273 0
0.0519902 0.0124711 0.2556233 0
-0.0730026 0.0282701 0.3439015 0
-0.0489246 0.0400593 0.2216980 0
0.0359451 0.0578474 0.4130127 0
0.0326635 0.0938947 0.2862834 0
0.0126737 -0.0147260 0.1930565 0
-0.0618123 -0.0207837 0.2550999 0
-0.0511417 -0.0158118 0.2360204 0
0.0840326 0.0326715 0.4434350 0
0.0277658 -0.0285129 0.4196468 0
-0.0824947 0.0383522 0.3890480 0
0.0024156 -0.0649618 0.2894764 0
-0.0852377 -0.0399841 0.1515415 0
-0.0008379 0.0749182 0.1808671 0
0.0104060 -0.0706791 0.2427650 0
-0.0796346 -0.0161792 0.2403151 0
0.0486653 0.0847699 0.3942227 0
0.0309492 -0.0366631 0.3996129 0
0.0683038 0.0265916 0.3285086 0
-0.0378555 -0.0092817 0.3618948 0
0.0200622 0.0135994 0.4229381 0
0.0060182 -0.0707917 0.3220202 0
0.0523493 -0.0265403 0.3264066 0
0.1088497 0.0659568 0.3047228 0
0.0940990 0.0457351 0.3221982 0
0.0688864 0.0916080 0.4039025 0
-0.1090618 0.0535671 0.5077374 0
0.0264036 0.1081129 0.2607647 0
0.0495693 0.0441825 0.3421864 0
0.0515000 0.0593730 0.4863398 0
0.0804818 -0.1102774 0.3355870 0
0.0417317 0.0117445 0.3969919 0
0.0396669 -0.0370876 0.3906136 0
0.0830886 0.0579196 0.3258143 0
0.0360862 0.0163650 0.3199677 0
0.0293301 0.0060083 0.3892095 0
0.1759096 -0.0370926 0.3788950 0
0.0388374 0.0082258 0.3331194 0
-0.0568474 -0.0326374 0.5498236 0
0.1251959 0.0348823 0.3004443 0
0.0530967 -0.0500587 0.3712590 0
0.0277659 -0.0185997 0.4301810 0
0.0354961 -0.0304772 0.3406168 0
0.0580020 0.0909529 0.2360983 0
0.0478529 0.0530214 0.3957067 0
-0.0466150 -0.0645149 0.4145201 0
0.0026987 -0.1021265 0.4340424 0
0.0749449 0.1113692 0.4299268 0
0.0861394 0.0310790 0.3208036 0
0.0669762 0.0874955 0.2558845 0
0.0179012 0.0020512 0.3511185 0
0.1534324 0.0100702 0.2548077 0
-0.0978380 -0.0357738 0.5133463 0
0.1970386 -0.1052577 0.3554560 0
0.1332218 -0.0042943 0.2707815 0
0.0389718 0.0428465 0.3448306 0
0.0424724 0.0668569 0.4272982 0
0.1360979 -0.0614148 0.3659471 0
-0.0457155 -0.0515413 0.3518178 0
0.0008996 -0.0001412 0.0290309 0
0.0351249 0.0272400 0.4187876 0
0.0548900 0.0854434 0.2774210 0
-0.0833925 0.0322209 0.3650694 0
0.0622390 0.0419640 0.5011085 0
-0.0900477 0.0148928 0.5012027 0
0.0463831 -0.0067716 0.3946103 0
-0.1067393 0.0150434 0.5102789 0
0.0310083 0.0958601 0.2570103 0
0.0674118 0.0600003 0.3613780 0
0.0240193 0.0648827 0.2354238 0
0.0289473 0.0249510 0.3620544 0
0.1677757 0.0034949 0.3101586 0
0.1109639 0.0068253 0.2179967 0
0.0276375 0.0884810 0.2568163 0
0.0772334 0.0135865 0.2993197 0
0.1491100 -0.0611344 0.3214883 0
0.0462005 -0.0001074 0.3955855 0
0.1169217 0.0725556 0.3025621 0
0.0231035 -0.0694173 0.4600258 0
0.0298951 0.0767082 0.3163413 0
0.0488865 0.0435549 0.3368073 0
0.0257114 -0.0722349 0.3736240 0
0.0412945 0.0541980 0.3485048 0
0.0995119 0.0096229 0.3155479 0
-0.0497759 0.0322099 0.4573028 0
0.0674821 0.0092635 0.3671378 0
-0.0158568 -0.0602726 0.4512731 0
0.0270563 -0.0309142 0.3961526 0
0.0800414 0.0302023 0.3154509 0
0.0499242 0.0296014 0.5022908 0
0.0496046 0.0444571 0.3765296 0
0.0033086 0.0084539 0.4236079 0
0.0380820 -0.0326452 0.2350084 0
0.0893643 0.0395058 0.2229664 0
0.0537738 0.0577587 0.3380539 0
0.0035941 0.0078663 0.3988080 0
-0.0068649 0.0079082 0.2733510 0
0.0712135 0.0334474 0.3165311 0
0.0552634 0.0110863 0.3479301 0
0.0130081 -0.1247055 0.4407389 0
0.1096521 0.0788031 0.2830386 0
0.0775934 0.0756566 0.2826931 0
0.0447380 0.0984750 0.1901930 0
-0.0141973 0.0238432 0.2491367 0
0.0148653 0.0271291 0.3802189 0
0.0580076 0.0743786 0.3047307 0
0.0641771 -0.0228010 0.3476757 0
0.1355037 0.0560556 0.3185798 0
0.0101492 -0.0072144 0.2383566 0
-0.0279665 0.0299298 0.3835110 0
0.1699127 -0.0391129 0.3243539 0
0.0119299 -0.0794891 0.4278441 0
0.0093918 -0.0834478 0.3994387 0
0.0420267 0.0258242 0.3124931 0
-0.0031064 -0.0894165 0.4313161 0
0.0051308 0.0071109 0.4205046 0
0.0120872 -0.0376199 0.3245339 0
0.0179600 0.0020565 0.3548525 0
0.0587733 0.0141543 0.3660897 0
0.0461854 0.0142008 0.3542025 0
0.0447768 -0.0432567 0.3691602 0
0.0136989 0.0124858 0.3479500 0
0.1924004 -0.1104253 0.4407555 0
0.0034535 0.0965581 0.2962262 0
0.0787988 0.0770315 0.2881806 0
0.0693892 0.0802007 0.2752427 0
0.0899508 0.0502412 0.3108695 0
0.0219460 0.0427135 0.3531006 0
0.0939418 0.0630753 0.2187175 0
0.0170694 0.0224932 0.3608794 0
0.0903307 0.0608544 0.3248243 0
0.0962210 0.0580455 0.2704706 0
0.1074089 -0.0530301 0.3261389 0
0.0679694 0.0172248 0.3411774 0
0.1593182 -0.0266761 0.3177238 0
0.0436254 -0.0234351 0.2252244 0
0.0952334 0.0520362 0.2618701 0
0.0885445 -0.0528039 0.3373405 0
0.2615341 0.0211505 0.3088051 0
0.0291437 -0.0135151 0.2559575 0
-0.1214529 -0.0119468 0.4767634 0
0.0779325 0.0210684 0.3423828 0
-0.0078191 -0.0372471 0.4645728 0
0.0646535 0.0206383 0.2405698 0
0.0418594 -0.0069344 0.2898931 0
0.1566062 -0.0372682 0.3034639 0
0.0558620 0.0397005 0.3462696 0
0.1527186 -0.0089559 0.2738408 0
0.0480588 0.0359427 0.3342539 0
0.0084810 -0.0888959 0.3132622 0
0.1179487 0.0713812 0.2724243 0
0.1625795 -0.0212622 0.3248086 0
0.0309619 -0.0105349 0.3894551 0
0.0437458 0.0281529 0.3460238 0
0.0595403 0.0765292 0.2246687 0
0.0933907 0.0514401 0.3177194 0
0.0365701 0.0946337 0.2748098 0
-0.0213815 -0.0391196 0.4235469 0
0.0858923 0.0185692 0.3293547 0
0.1396233 -0.0818005 0.3658093 0
0.0207446 -0.0873677 0.4343086 0
0.0420572 0.0167670 0.3608671 0
0.0941324 -0.0122906 0.3541269 0
0.0844910 -0.0129396 0.3271016 0
0.0956315 -0.0292672 0.4842926 0
0.0901127 -0.0308536 0.4231782 0
0.2081118 -0.0086190 0.3645831 0
-0.1063557 0.0428701 0.3869380 0
0.0184528 -0.0205759 0.3661075 0
0.0033847 0.0387322 0.4074554 0
0.0740827 0.0490617 0.3227038 0
0.0654649 0.0784947 0.2529151 0
0.0699597 -0.0913952 0.3450899 0
-0.0772408 0.0312913 0.3537944 0
0.0135476 -0.1238433 0.4409098 0
0.0051518 0.0067801 0.3804828 0
0.0446509 0.0838239 0.2567431 0
0.0205094 -0.0284292 0.4077281 0
0.0558747 -0.0211584 0.3449432 0
0.0562152 -0.0305968 0.3620488 0
-0.1282636 0.0027686 0.5031533 0
-0.0241463 0.0052344 0.3901764 0
-0.1920980 0.0254327 0.5642211 0
0.0835997 0.0563062 0.2959384 0
0.0315973 0.0068822 0.4609822 0
0.0702345 0.0334676 0.3534735 0
0.0578652 -0.0534956 0.3858788 0
0.1065738 0.0343537 0.3186518 0
0.0728572 -0.0302763 0.3528760 0
-0.0939072 0.0154730 0.5243603 0
0.1645860 -0.1004659 0.3607438 0
0.1516376 -0.0915790 0.3464243 0
-0.0971238 -0.0543568 0.4864671 0
0.0096645 -0.0762495 0.4056222 0
0.0405019 -0.0638793 0.3661579 0
0.0375780 0.0908475 0.2816877 0
0.0743588 0.0330009 0.4128981 0
0.0234913 0.0653007 0.3243943 0
0.0459052 -0.0443796 0.3805736 0
-0.0932184 -0.0944672 0.4931959 0
0.0691829 -0.0279675 0.4161606 0
0.0611068 0.0080432 0.3031138 0
0.1061310 0.0595834 0.2545002 0
0.0799895 0.0099170 0.3224260 0
0.0282278 0.0316077 0.3256964 0
0.0909741 0.0519959 0.2179200 0
0.0673673 0.0868394 0.2568922 0
0.1790651 0.0322469 0.2408571 0
-0.0013461 0.0933019 0.2839765 0
0.1036569 -0.0973249 0.3855790 0
0.1421130 -0.0833280 0.3738141 0
0.0458421 -0.0887009 0.3582110 0
0.1118891 -0.0037449 0.3772961 0
0.0687349 0.0826440 0.2632690 0
0.0450912 0.0013631 0.3976280 0
0.0517476 0.0031156 0.3342537 0
0.0238158 -0.0616397 0.4513360 0
0.1772412 -0.0072101 0.3039680 0
0.2554992 -0.0189417 0.3554060 0
0.1954785 -0.0348593 0.3473122 0
-0.0206580 -0.0382842 0.4026186 0
0.0355295 -0.0112275 0.3182421 0
-0.1545104 -0.0492210 0.5844049 0
-0.1383265 -0.0144544 0.5364736 0
-0.0002175 0.0824068 0.2493859 0
0.0893517 0.0490323 0.3025529 0
0.4780384 -0.0967373 0.3681882 0
0.0815592 0.0458038 0.3104250 0
0.0380843 0.0249587 0.4006923 0
0.0151432 0.0042260 0.3786009 0
0.0538975 -0.0463463 0.2870315 0
0.0592830 0.0816353 0.2884817 0
0.0743233 0.0854530 0.2931471 0
0.0990685 -0.0146037 0.3277174 0
0.0821792 -0.0395496 0.3951831 0
0.0356652 -0.0429735 0.2261819 0
0.0228399 -0.0658729 0.4294522 0
0.0554949 -0.0584546 0.2944711 0
0.1631411 -0.0771330 0.3840007 0
0.1700466 -0.1001179 0.3786393 0
0.0703958 -0.0940940 0.3585045 0
0.1016123 0.0570547 0.2813474 0
0.0464984 0.0711527 0.2549387 0
0.0889889 0.0433552 0.3087673 0
-0.0692713 0.0013063 0.2998376 0
0.0301290 0.0471093 0.3429001 0
0.1915137 0.0222839 0.2942624 0
0.1053595 0.0540982 0.2181341 0
0.0757212 0.0635192 0.2804296 0
0.0442536 0.0883655 0.2547642 0
-0.0191524 0.0712011 0.3981540 0
0.0028162 0.1160857 0.2552994 0
0.0036138 0.0851356 0.2013299 0
0.1331009 0.0001191 0.2533037 0
0.0084696 0.0048139 0.4031166 0
0.0680884 0.0026875 0.3802438 0
0.0462159 -0.0112483 0.4040531 0
0.0554719 0.0091419 0.3367821 0
0.0170052 -0.0135925 0.3598938 0
0.0193126 -0.0255932 0.4227389 0
0.1691811 -0.0223358 0.3153718 0
0.2561285 -0.0340944 0.4520729 0
0.1878888 0.0118435 0.3142863 0
0.2063797 -0.0037857 0.3186645 0
0.1532574 -0.0473493 0.3224751 0
0.1622233 -0.0325517 0.3113236 0
-0.1180051 -0.0582812 0.4833860 0
0.1008722 0.0661326 0.3170911 0
0.0463217 0.0146512 0.3667536 0
-0.0306812 0.0044052 0.4179220 0
0.0754362 0.0087320 0.4826539 0
-0.0241789 0.0208363 0.3987038 0
-0.0609094 -0.0254920 0.4509435 0
0.0324465 -0.0010970 0.3294453 0
-0.1060017 -0.0282962 0.4290166 0
0.1583480 -0.2406880 0.6600114 0
0.0433555 -0.0123430 0.2937804 0
-0.0394312 0.0225801 0.3827507 0
0.0937761 -0.0261404 0.2674522 0
0.0630377 -0.0372589 0.3462977 0
0.2418350 0.1100882 0.2125484 0
0.0136973 -0.0751180 0.4474972 0
0.0384325 0.0886772 0.2828855 0
0.0115402 0.0146213 0.3211512 0
0.1891222 -0.0110170 0.3374759 0
0.1136174 -0.1302973 0.4081123 0
0.1855867 -0.1244120 0.3273297 0
0.0674064 0.0336480 0.3441845 0
0.0611256 -0.0137338 0.2670685 0
0.1030781 0.0217012 0.4072671 0
0.1774921 -0.0561452 0.3340148 0
0.1657032 -0.0280064 0.2961303 0
0.1224379 -0.0302272 0.3216499 0
0.0780172 0.0153694 0.3603961 0
0.0344508 0.0847019 0.2496213 0
0.0551863 -0.0187421 0.2681192 0
0.0564483 -0.0875565 0.4356259 0
0.0315206 -0.0121574 0.3202854 0
-0.0018731 -0.1034013 0.4595373 0
-0.0136229 -0.1015381 0.4554245 0
0.0869438 0.0563636 0.2563446 0
0.0957462 0.0731437 0.2421553 0
0.0451715 0.0589133 0.2563482 0
0.0476198 -0.0213731 0.2540681 0
0.0588016 0.0007908 0.3807378 0
0.0315178 -0.0515239 0.2216532 0
0.1463848 0.0307771 0.2469768 0
-0.0318735 0.0247686 0.3288277 0
-0.1919361 -0.0845129 0.6063741 0
0.1672371 -0.2563353 0.6991934 0
0.1373650 0.0426952 0.2972084 0
0.0169773 -0.0013405 0.2637201 0
0.0724391 0.0947670 0.2795448 0
0.0829705 -0.0259566 0.3137399 0
0.0805196 0.0384379 0.1705556 0
0.0020422 0.0928227 0.2197841 0
-0.0077481 -0.0105685 0.3057749 0
0.0309899 0.0684127 0.3215919 0
-0.0313960 0.0028057 0.4208747 0
-0.1100046 0.0383675 0.3425162 0
0.1674049 -0.0705414 0.3194038 0
0.1111932 0.0429704 0.2820556 0
0.0008317 0.0406006 0.3675426 0
0.1575390 -0.0194532 0.3191824 0
-0.0913118 -0.0480941 0.4683172 0
0.0754506 0.0045708 0.2939412 0
0.1126920 -0.0161739 0.3722275 0
0.0320368 0.0328858 0.1770487 0
-0.0065974 -0.0378569 0.4367332 0
-0.0064907 -0.0412896 0.3727219 0
-0.0250682 0.1054913 0.3294640 0
0.0380005 -0.0232353 0.2896697 0
0.0410188 -0.0750400 0.2595479 0
0.0613154 -0.0627141 0.3582800 0
-0.0425680 -0.0737283 0.5583963 0
0.0109531 -0.0927644 0.3229983 0
0.0682553 -0.0237105 0.3373399 0
0.1561831 -0.0479575 0.2952024 0
0.1424351 -0.0608125 0.3407907 0
0.0327313 0.0194812 0.4527588 0
-0.1454304 -0.0743332 0.5906295 0
0.0064895 0.0638021 0.3851587 0
0.0291180 0.0453987 0.3335432 0
0.1947891 -0.0181859 0.3402413 0
0.1940572 -0.0290374 0.3432844 0
0.1486080 -0.0294807 0.3063455 0
0.2299081 -0.0843190 0.5012868 0
0.1564413 -0.0333106 0.3014850 0
-0.0643687 0.0200838 0.3400122 0
-0.1052690 -0.0791997 0.5066825 0
0.0567404 -0.0536395 0.3583329 0
0.1559900 0.0172145 0.2647426 0
0.1350279 0.0127443 0.2466462 0
0.1659806 -0.0618011 0.3185674 0
-0.0080615 -0.0464154 0.4244514 0
0.0810607 0.0466538 0.3068557 0
-0.0970123 -0.0648138 0.4996286 0
0.0132623 0.0004007 0.4237902 0
-0.1109124 0.0271375 0.4375380 0
-0.2111667 0.0370928 0.4381101 0
0.1038219 0.0576404 0.2857389 0
0.1521381 -0.0357005 0.2915017 0
-0.0214672 0.0097771 0.5723827 0
0.1821851 -0.0770639 0.3959175 0
0.1636141 -0.0280841 0.3533785 0
-0.0805591 0.0110075 0.3895290 0
-0.0012120 0.0148706 0.4156135 0
-0.0406629 0.0212767 0.4237862 0
0.0834360 0.0572854 0.2989370 0
-0.0676008 -0.0502859 0.4858652 0
0.0593389 -0.0740420 0.3348930 0
0.0021248 0.0831506 0.2001050 0
-0.0321842 -0.0005262 0.2826314 0
0.0923984 0.0010879 0.3630084 0
0.1355702 -0.0525646 0.3462004 0
-0.0483477 -0.1019121 0.4968487 0
0.0563745 0.0703089 0.2614045 0
0.0573259 0.0172985 0.3112395 0
0.1143057 -0.0838701 0.4059025 0
0.1260571 -0.1085540 0.4321130 0
0.0403139 0.0017132 0.3391992 0
0.1418997 -0.0730605 0.3218555 0
0.0346167 -0.0379829 0.3430900 0
0.0837618 -0.0108193 0.3144005 0
0.0719533 -0.0157182 0.2849908 0
0.1487334 -0.0797976 0.3907183 0
0.1950951 -0.0414961 0.2871407 0
0.1174622 0.0416954 0.2454967 0
0.0339228 0.0489748 0.2475214 0
-0.0752372 -0.0593046 0.4919600 0
0.0660932 0.0353521 0.3292901 0
0.1762253 -0.0456100 0.3609401 0
0.0198211 -0.0213121 0.2755359 0
-0.0195527 0.0858979 0.2716364 0
0.0523702 -0.0477224 0.2624256 0
0.2117397 0.0376310 0.2834267 0
-0.0366940 0.0342184 0.3149900 0
0.0209188 -0.0511150 0.3349717 0
-0.0993997 -0.0860683 0.4366933 0
0.1025046 0.0575713 0.2845344 0
0.0260699 -0.0501043 0.3632370 0
0.1020755 0.0661058 0.2380074 0
0.1198475 -0.0345527 0.2662694 0
0.1647153 -0.0522736 0.3122872 0
0.0458815 0.0056000 0.2230514 0
0.1317328 0.0174121 0.2087702 0
0.0196093 -0.0371724 0.3219057 0
0.1050153 0.0480364 0.2452211 0
0.1343142 0.0451231 0.2834441 0
0.0061208 -0.1078617 0.4034509 0
0.1048598 0.0536453 0.2177700 0
0.1393449 -0.0262723 0.2888524 0
0.0433980 0.0742762 0.2871583 0
-0.0612836 -0.0121534 0.2702976 0
0.1457171 -0.0688327 0.3408903 0
0.1391078 -0.0852273 0.3089812 0
0.1037481 0.0633850 0.2295066 0
0.0170174 0.0084192 0.2543611 0
0.1406950 0.0540676 0.2834575 0
0.1715743 -0.0160799 0.2452897 0
0.1402978 -0.0181758 0.2473615 0
0.1159671 0.0526938 0.2727220 0
0.1500063 -0.0198503 0.3009048 0
0.1005344 -0.0009442 0.1885522 0
0.0186981 0.0479287 0.3076321 0
