# .PCD v.7 - Point Cloud Data file format
VERSION .7
FIELDS x y z rgb
SIZE 4 4 4 4
TYPE F F F F
COUNT 1 1 1 1
WIDTH 79
HEIGHT 1
VIEWPOINT 0 0 0 1 0 0 0
POINTS 79
DATA ascii

0.2326958 0.2533843 1.1106234 0
0.2023773 0.2279157 1.0566683 0
0.1193114 -0.0766890 0.7663254 0
0.4845371 -0.3417774 0.6497309 0
0.4318267 0.1530092 0.7843669 0
0.1756252 0.3097620 1.0983443 0
0.4853384 -0.2947788 0.6073422 0
0.2510533 0.2564152 1.0523831 0
0.1668851 0.0204318 0.9711909 0
0.2208066 0.3764034 1.0027189 0
0.2323125 0.2750154 1.0381235 0
0.1225014 0.1949785 1.1341046 0
0.1167576 -0.1638055 0.3818132 0
0.1186326 -0.0874490 0.8559800 0
0.3077547 0.2517603 1.1263022 0
0.2871009 0.3434111 1.2496467 0
0.1678196 0.3484094 1.0435110 0
-0.7838585 0.0447389 1.6005340 0
-0.7162279 0.0748132 1.3519737 0
0.1128477 -0.0862958 0.7756060 0
-0.0144545 -0.0473198 0.9457485 0
0.2356302 0.2413506 1.1283896 0
-0.1659178 -0.3606593 0.9679088 0
0.2310827 0.2970367 1.0000000 0
0.2342127 0.2361510 1.1425602 0
0.1640176 -0.0928092 0.8653399 0
0.2976799 0.2818253 1.3942292 0
0.4502306 -0.3322394 0.6314425 0
0.1809389 -0.1017078 0.8067670 0
-0.7889316 0.0890902 1.4047531 0
0.1797369 -0.1016778 0.8547922 0
0.7622040 0.1759563 0.5977592 0
0.2961203 0.3707659 1.0405600 0
0.1124231 0.2117513 1.2849926 0
0.2048808 0.1574555 1.3655366 0
0.4296167 0.1663405 0.7586432 0
0.2220733 0.2973495 1.2562220 0
0.1960837 0.1909153 1.1497977 0
0.5023016 -0.1276426 0.7753407 0
0.2291644 0.4135028 1.3052258 0
0.2741784 0.2264951 1.0616919 0
0.1366972 -0.1449019 0.8602806 0
-0.7324311 0.0658148 1.4718555 0
-0.0308612 -0.0568144 0.9640599 0
0.1095095 0.0868319 1.1675718 0
0.3903912 -0.2617406 0.6209321 0
0.1342793 0.1134561 1.0920291 0
0.4386924 0.1809075 0.8371535 0
0.2519283 0.3988005 1.1765480 0
0.3275705 0.1872951 1.0417136 0
-0.1611442 -0.2334358 0.6767868 0
0.3283044 0.4192160 1.1337821 0
0.4750397 -0.2827170 0.6164736 0
0.2459097 0.3261659 1.0613706 0
0.3118465 0.3586225 1.0671488 0
0.5112951 0.0352322 0.7937936 0
-0.0766038 -0.0029222 0.8373968 0
0.4634680 -0.2797057 0.6501201 0
0.2414374 0.1682110 1.0792401 0
0.2060346 0.1681549 1.0224856 0
0.2151828 0.2346583 1.1936994 0
0.3251675 0.1003533 0.9297054 0
0.0796080 0.0866956 1.0996686 0
0.1340378 0.0675373 1.1472493 0
0.1371137 0.2582850 0.9772506 0
0.1856102 0.2667007 0.8155233 0
0.1963379 -0.0340393 0.9107758 0
0.1550322 -0.0264824 0.9435120 0
0.1408766 -0.1450737 0.3723253 0
0.2316554 0.1299239 1.0326533 0
0.4812137 -0.2988629 0.6102623 0
0.3397099 0.0209797 0.7655576 0
0.2686592 0.1412775 1.0786318 0
0.1795121 -0.0218944 0.9202700 0
-0.1670664 -0.2970976 0.9155847 0
0.2658882 0.1241638 0.9777997 0
0.1106511 0.3439013 0.9971394 0
0.1310397 -0.1422366 0.3610461 0
0.2705616 0.1660196 1.0440881 0
