# .PCD v.7 - Point Cloud Data file format
VERSION .7
FIELDS x y z rgb
SIZE 4 4 4 4
TYPE F F F F
COUNT 1 1 1 1
WIDTH 102
HEIGHT 1
VIEWPOINT 0 0 0 1 0 0 0
POINTS 102
DATA ascii

-0.1310147 -0.1521235 0.8923868 0
0.1952367 0.2031493 1.2747562 0
0.3612923 0.3757138 1.3873755 0
0.1443447 -0.2661780 0.8686606 0
-0.2837169 0.0134027 0.8886986 0
-0.0175957 0.1274132 1.0863224 0
0.2316119 0.1544175 1.2793219 0
0.2014973 -0.2461948 0.9319921 0
-0.1473910 -0.1302459 0.7288040 0
0.2601242 0.2701313 1.2923830 0
0.6479027 -0.2764933 0.8751352 0
-0.1253811 -0.2117093 0.7509238 0
-0.1058889 -0.1996700 0.8216592 0
-0.1260924 -0.0743176 0.7591584 0
0.1245426 -0.1785281 0.9696619 0
0.4700097 -0.1640210 1.0276670 0
0.0476102 -0.1205945 0.9735915 0
0.1495297 -0.1333861 0.8757127 0
-0.1344792 -0.1716352 0.8661571 0
-0.0948185 0.1542911 0.9785277 0
-0.1081515 -0.1063252 0.8264740 0
0.7128773 -0.1010302 1.1743816 0
-0.1275221 -0.1512398 0.8608820 0
-0.6215075 0.5141575 0.8656448 0
0.2403682 -0.2490611 1.0552462 0
-0.3666720 0.1023854 0.9157873 0
-0.2153084 -0.1034523 0.8001212 0
0.0522866 -0.1494732 0.9889991 0
0.0400708 -0.1012035 0.9565744 0
0.0516726 0.1736455 1.0407951 0
-0.2828422 0.0073106 0.8966429 0
0.8583431 0.0258148 1.1286044 0
-0.0410058 0.1624157 1.2046430 0
0.1694533 -0.1693266 0.8591260 0
-0.1440369 -0.0467557 0.8497186 0
-0.2599678 0.0012278 0.8220965 0
0.3114080 0.3327026 1.3678349 0
-0.1318509 -0.0540342 0.8138281 0
0.1176678 -0.0269387 1.1169760 0
0.1116204 0.1658120 1.0983847 0
0.4175321 0.0245995 1.2286011 0
0.9135615 0.0278839 1.2285632 0
0.3200105 0.3151692 1.4073504 0
-0.1930656 -0.0902540 0.7981365 0
0.2328573 -0.2450891 0.9776052 0
0.1102674 0.3951525 1.1308174 0
-0.2518249 -0.1873392 0.7305881 0
0.1144753 0.4720233 1.2507671 0
0.1643428 0.1690553 1.1868993 0
0.3627943 -0.2275416 0.9216821 0
0.0123835 0.0186196 1.1127079 0
-0.2850767 -0.0290373 0.8802547 0
0.0699586 -0.1070365 0.7620961 0
-0.0493668 0.1240617 1.0075209 0
0.1568754 0.4021887 1.2567526 0
-0.2655311 0.0012663 1.1096824 0
-0.2050703 -0.0924347 0.7539908 0
-0.1395562 0.3634357 1.2514445 0
0.0898018 0.0627426 1.1498234 0
-0.0692909 0.1957017 1.0405160 0
0.2445635 0.3663286 1.3173771 0
-0.1293526 -0.0617150 0.7695762 0
0.0591995 0.1175156 1.0279864 0
0.1070000 0.3674314 1.1149834 0
0.1417956 -0.0140343 1.1179655 0
0.1837992 -0.2160564 0.7509983 0
0.2272505 -0.2305338 0.7818137 0
0.2457492 0.1875862 1.2074271 0
0.1004586 0.0059133 1.0021149 0
0.2371173 -0.0075425 0.9632320 0
0.1843158 0.1722777 1.2871472 0
-0.2221202 -0.0097117 0.8969836 0
-0.0403775 -0.2057613 0.7899998 0
-0.4123505 0.1150140 1.1011877 0
0.1381300 0.2532319 1.1442381 0
-0.1269751 -0.1311537 0.7574153 0
0.1066372 0.2647696 1.0617516 0
0.1553724 0.3604555 1.2616593 0
0.1521489 0.4122584 1.4221474 0
-0.3999552 0.1016625 1.0645539 0
0.1284679 -0.0138322 1.0993247 0
0.1122338 0.0197367 1.0560951 0
0.2596886 0.1879988 1.1373298 0
-0.1217749 -0.1847087 0.7968910 0
0.2186485 0.0488684 1.1103209 0
0.2622525 0.3253002 1.4166594 0
-0.1174381 -0.0428097 0.7758346 0
0.1026222 0.1584626 1.0047374 0
0.0721272 0.0232893 0.9151552 0
0.0829553 -0.2047405 0.9084881 0
0.0986254 0.0862049 1.0391166 0
-0.2733952 -0.0200891 0.8951700 0
0.1143579 0.0067306 0.9608626 0
0.0331511 0.0034445 0.9755752 0
-0.0166767 0.0361963 1.0000000 0
-0.2936696 -0.0092284 0.8901843 0
0.0940122 -0.1659146 1.0489740 0
0.1091461 -0.0263156 0.9345716 0
0.1673117 -0.3125814 0.9423454 0
0.1873920 0.3084196 1.2707365 0
0.2959608 0.3687421 1.4348761 0
0.1064311 0.0743099 1.1676780 0
