# .PCD v.7 - Point Cloud Data file format
VERSION .7
FIELDS x y z rgb
SIZE 4 4 4 4
TYPE F F F F
COUNT 1 1 1 1
WIDTH 102
HEIGHT 1
VIEWPOINT 0 0 0 1 0 0 0
POINTS 102
DATA ascii

-1.2600985 0.8634610 1.3492039 0
-0.1425290 0.0990188 1.4634553 0
0.2298419 0.4788032 0.9514077 0
0.1458456 0.1669257 1.0019885 0
0.1251111 0.3848704 0.8352776 0
0.2045674 0.1737494 1.0000000 0
0.1216147 0.0654619 1.6273835 0
-0.5932638 -0.6259144 1.6099366 0
-0.0486811 -0.0290926 1.1218643 0
0.2095573 0.1867045 1.0061690 0
0.0232740 0.1643666 1.1270138 0
0.1006875 0.3380131 1.0030918 0
0.3940274 -0.0993400 1.1950396 0
0.0796068 0.1133545 1.1671623 0
-0.3612495 -0.7324631 2.3639507 0
0.0835703 0.4234260 0.8352503 0
-4.2802377 -3.1950781 11.1609926 0
0.1303713 0.3172850 0.8653138 0
0.2884229 0.2995639 0.7654359 0
0.1004628 0.3029372 0.9567223 0
0.5285409 0.2571866 0.9110888 0
-1.4421366 0.9156722 1.7119256 0
0.1719610 0.3269941 0.7656282 0
0.1057692 0.4264359 0.7331660 0
0.1774324 0.2983711 0.8554561 0
0.2317195 0.1770426 1.1456234 0
0.1158570 0.2976951 0.8747343 0
0.1573521 0.3263882 0.8939606 0
0.3146626 0.3316072 0.8703324 0
0.1532294 0.2825350 0.8782260 0
-0.0139356 0.0144669 1.3717597 0
-0.1336808 0.0594598 1.5485384 0
0.0827278 0.1559103 1.3308275 0
0.1393954 0.2750952 0.9205990 0
0.1489199 0.0849344 1.3940657 0
0.2189456 0.3280301 0.8139552 0
0.1369203 0.3559153 1.1220133 0
0.2229159 0.3257193 0.8682116 0
0.0908950 0.4091192 1.2269258 0
0.1950691 0.1963333 0.8943517 0
0.0248695 0.0233917 1.3913971 0
0.1929299 0.2446509 0.9633095 0
0.6991645 0.1718484 0.6111441 0
-0.1783562 0.1289327 1.4267201 0
0.1990416 0.0350070 0.9288324 0
-0.0504890 0.0408121 1.2972068 0
0.0198094 0.3556175 0.9778172 0
0.2854952 0.1719950 0.6347948 0
0.1979973 0.1353516 1.1047509 0
0.8437381 0.0466517 1.0033436 0
0.1339581 0.2489245 1.0498613 0
0.6842065 0.1450012 0.7193524 0
0.1714259 0.1985478 0.8347861 0
0.0705927 -0.0092215 1.5012321 0
0.1198629 0.4112507 0.8226619 0
0.0859648 0.3469939 0.9578142 0
0.0692952 0.0962000 1.3474177 0
0.4244315 0.2163840 0.8076657 0
-1.9098989 1.3911425 1.8860941 0
0.0024429 0.4593423 1.1654069 0
0.2105956 0.0242797 1.3067912 0
0.1149678 -0.0405805 1.4004195 0
0.7751646 0.1556036 0.7989365 0
-1.5572134 1.2042390 1.6637723 0
0.0245652 0.0636918 1.0509187 0
0.1242407 0.1844141 1.0455346 0
0.1450737 0.1537780 1.0658977 0
0.1279941 0.2445351 0.9807894 0
0.1467866 0.3274053 1.0442700 0
-1.1984495 -1.5683560 3.8159029 0
0.0762811 0.3315623 0.9634156 0
0.2082181 0.3407741 1.0065329 0
-0.0605794 0.0604357 1.3210553 0
0.1937471 0.1517221 0.9200763 0
-0.1583431 0.1403700 1.4873573 0
0.1477307 0.3824245 0.8065968 0
0.1181162 -0.0370380 1.3140689 0
0.3588081 -0.0654903 1.0700316 0
0.1111583 0.2694878 0.9524612 0
-1.5801830 1.0558697 1.6062446 0
0.1860217 0.2172235 0.8866989 0
0.2030825 0.2811854 0.7362973 0
0.2934257 0.2335400 0.9324135 0
0.4257260 0.2529899 0.9208925 0
0.1985020 0.3133653 0.9309187 0
0.8748686 -0.1583017 1.3923578 0
-0.9066443 -0.3624044 1.8779982 0
0.1189718 0.4238675 0.7690111 0
0.1602854 0.2300307 0.9625203 0
0.1647633 0.2655654 0.8843062 0
0.2588134 0.1988659 0.9494797 0
0.1689584 0.3625978 0.9247160 0
0.3217244 0.2073130 1.2135035 0
0.8271983 0.1706172 0.8141382 0
0.1379281 0.1069821 1.5498145 0
0.4736134 0.2197683 0.9721335 0
0.2528594 0.2290316 0.9124308 0
0.3008146 0.2687740 0.9003587 0
0.1714562 0.0851020 1.1378837 0
0.4438733 0.2209574 0.7152699 0
0.1933783 0.2887786 0.9946800 0
-0.0891400 0.2148843 1.1884474 0
