# .PCD v.7 - Point Cloud Data file format
VERSION .7
FIELDS x y z rgb
SIZE 4 4 4 4
TYPE F F F F
COUNT 1 1 1 1
WIDTH 1430
HEIGHT 1
VIEWPOINT 0 0 0 1 0 0 0
POINTS 1430
DATA ascii
2.0820658 -1.8144524 4.5942636 0
0.0515923 -0.5004880 1.4177999 0
0.0134936 -0.3056078 1.0443474 0
0.2616292 -0.3239880 1.1645020 0
2.3681061 -1.6999223 3.7943165 0
-0.1305517 -0.4513309 1.2952148 0
0.1557555 -0.8816425 2.1534703 0
-0.2003271 -1.0844010 2.1793203 0
0.2443983 -0.2142262 0.9660889 0
5.6918178 -3.7412131 7.4550247 0
0.4445900 -0.9802547 2.5642688 0
0.2220234 -0.9026145 2.3280838 0
-0.0930195 -1.0895973 2.2569664 0
2.9062498 -1.2470566 3.8538303 0
-0.0856486 -1.2358420 2.6237099 0
0.1021105 -0.9548013 2.0752044 0
-0.0965530 -1.0909932 2.5928767 0
0.4372325 -0.5942403 3.3394976 0
-0.0278788 -0.7784802 1.5581210 0
0.0584647 -0.5153674 1.5122927 0
-0.0500446 -0.3808707 1.1600215 0
-0.0014943 -0.4428860 1.2969927 0
0.0656910 -0.2685395 0.9823554 0
-0.0584216 -0.2106486 0.8718940 0
0.0348992 -0.2221242 0.9274211 0
0.1071321 -0.3104961 1.0640928 0
0.0160717 -0.2401954 0.9405111 0
0.0664933 -0.2672506 1.0025468 0
0.2179010 -0.3048659 1.0850655 0
1.2743579 -1.1968542 2.5033083 0
0.2158932 -0.4609821 1.3381207 0
0.8789675 -0.7559620 1.9092294 0
-1.1476619 -0.8213592 2.3595610 0
1.0578243 -0.9094375 2.3079367 0
-0.0493531 -0.3813991 1.1583164 0
0.0722920 -0.2508064 0.9640907 0
0.1157641 -0.3725381 1.2015241 0
-0.0017421 -0.4416278 1.2852640 0
0.2867796 -0.4865174 1.4075445 0
0.9898888 -0.7128993 2.0268869 0
0.0711744 -0.1847899 0.8791033 0
-0.1487462 -0.4285629 1.2451433 0
0.4300640 -0.7479576 2.0643268 0
0.9440706 -1.2674543 3.0008287 0
0.2870126 -0.4932936 1.4258460 0
0.2546578 -0.4820613 1.4176489 0
-0.1349548 -0.3403169 1.1246489 0
-0.9402247 -0.8607289 2.3115864 0
0.3385625 -0.3581587 1.2255589 0
-2.2962973 -1.2967561 3.7928674 0
-0.1242627 -0.2785062 0.9941073 0
-1.7608297 -0.8051065 2.6887665 0
-0.1285323 -0.2322570 0.8946286 0
-0.3584728 -0.4634653 1.3682503 0
-0.1266520 -0.3310331 1.0818936 0
0.1291053 -0.5560870 1.5388880 0
0.0501858 -0.3084486 1.0368283 0
-0.1353587 -0.3752343 1.2243162 0
0.9951159 -0.7111579 2.0246096 0
0.0410968 -0.2591780 0.9908343 0
-0.1011507 -0.2419766 0.9113120 0
0.2567134 -0.2474079 1.0271921 0
0.3093193 -0.3777487 1.2323910 0
0.0119003 -0.3069737 1.0418957 0
-0.1274838 -0.3717889 1.1896467 0
0.1960787 -0.5101591 1.4459552 0
0.0976032 -0.4119399 1.2528656 0
0.1834040 -0.4980867 1.4465144 0
0.0025163 -0.2842543 1.0107574 0
0.0666595 -0.2214130 0.9347771 0
0.2387547 -0.2693034 1.0398066 0
-0.1266908 -1.2654407 3.1920943 0
0.1939613 -0.9429495 2.3399875 0
0.5407148 -0.4469717 1.4576473 0
0.0874320 -0.4071571 1.1778768 0
0.2382483 -0.2700145 1.0364306 0
0.0425048 -0.2569081 1.0012971 0
0.2301923 -0.3543708 1.1671965 0
-0.1868692 -0.3521568 1.1776096 0
-0.4555250 -0.5632922 1.5575373 0
0.4934145 -0.1908160 1.1366445 0
-0.1344170 -0.3462268 1.0997679 0
-0.2267369 -0.2863158 1.0408696 0
-0.1470445 -0.1577172 0.8602872 0
0.1112794 -0.2429302 0.9576377 0
0.4945717 -0.1925766 1.1366580 0
0.0740968 -0.3937928 1.1893425 0
-0.3164062 -0.3808780 1.1996405 0
-0.2326240 -0.2835436 1.0447694 0
-0.5519356 -0.4151928 1.3718017 0
0.0742127 -0.1842912 0.8677415 0
0.2435886 -0.2682884 1.0455624 0
0.1542911 -0.1742320 0.9573289 0
-0.4522401 -0.3864430 1.3037431 0
0.3723921 -0.5104418 1.4364823 0
0.3763546 -0.2137246 1.0683408 0
0.8554834 -0.6596486 1.9668458 0
-0.1764159 -0.3480252 1.1210296 0
-0.3663214 -0.2778785 1.0384039 0
0.0055561 -0.3416916 1.1017914 0
-0.3959166 -0.2276981 0.9934873 0
0.6430703 -1.2980669 2.6157873 0
2.0967932 -2.1534331 5.0885620 0
3.7183979 -1.7281750 5.2134342 0
0.0445012 -0.7624139 2.0405869 0
2.4116142 -1.7680901 3.6328855 0
-0.2915336 -1.0587716 2.4914184 0
0.0420870 -0.8113594 2.0969620 0
-0.1106844 -0.2947657 1.0260154 0
0.2396466 -0.3203860 1.1356736 0
-0.0991652 -0.8034269 2.0938108 0
3.1129427 -1.0521281 3.8640332 0
0.4654963 -1.4304137 2.9686596 0
0.4146704 -0.8177749 2.1562102 0
0.0944356 -0.6754001 1.8269719 0
2.8954039 -1.5660485 4.3008776 0
0.0361168 -0.6789147 1.7364929 0
-2.8617098 2.0748434 7.0257511 0
3.5931444 -2.0060847 4.5187168 0
0.0460034 -0.5446715 1.5361198 0
-0.7692439 -1.2375041 2.7757347 0
-0.9674556 -0.8695850 2.3551288 0
0.4073320 -0.7662702 2.0217388 0
-0.0937232 -0.5160854 1.4572998 0
-0.1236215 -0.2556723 0.9602891 0
-0.1216475 -0.3175318 1.0501908 0
-0.8728099 -1.3734679 3.0979292 0
-0.0172223 -0.6315123 1.7350287 0
0.2253994 -0.4018335 1.2406207 0
-0.3379461 -1.2360440 2.6716759 0
1.0707959 -0.6492627 2.0253332 0
0.0456837 -0.5406741 1.5131922 0
1.1395518 -0.9489081 2.0090098 0
-0.9207876 -0.9180699 2.3183129 0
0.1980868 -0.6821639 1.7914243 0
-0.7457210 -1.1406517 2.5621841 0
3.5628598 -1.7878330 4.3577905 0
-0.5594145 -1.3205415 2.8843930 0
-0.5720391 -1.4113896 2.8828876 0
0.1930352 -0.7547137 2.0233114 0
0.1900057 -0.3857421 1.2207284 0
-1.8743362 -1.5560311 4.0085120 0
0.0709072 -0.5512766 1.5718542 0
-0.7602211 -0.9926545 2.5289118 0
0.7565071 -1.1180313 2.1487064 0
-0.8682608 -0.6769974 2.0179956 0
-0.0691213 -0.3162359 1.0462167 0
0.8066037 -0.8453558 2.2018430 0
-1.1502231 -0.8189680 2.3721485 0
0.7130647 -1.0809027 2.0578811 0
-0.9430067 -0.9338241 2.3544288 0
0.2262791 -0.3669651 1.1893181 0
0.1008743 -0.4423591 1.3076425 0
-1.0468707 -0.9989387 2.5593786 0
0.2035915 -0.3186322 1.1072298 0
-0.0222954 -0.6226823 1.6998913 0
0.1065034 -0.3782321 1.1854784 0
0.1888195 -0.5119137 1.4158088 0
0.0845230 -0.4298559 1.2537805 0
0.0365569 -0.5399511 1.4714092 0
-0.9291527 -0.9281519 2.3246670 0
0.3404967 -0.3701321 1.2517133 0
0.2014079 -0.3196338 1.0998564 0
1.1306643 -1.1726558 2.3579893 0
-0.1869619 -0.2458288 0.9854322 0
0.1717192 -0.5166219 1.5100318 0
0.5095289 -0.2293489 1.1570075 0
0.4421392 -0.3541021 1.2346520 0
0.1153647 -0.2390946 0.9710944 0
-0.1047162 -0.3312038 1.0668973 0
-0.1572396 -0.2841083 1.0316341 0
-0.1049140 -0.2976521 1.0309426 0
-0.0130710 -0.3002190 1.0326581 0
-0.0842285 -0.3105526 1.0417056 0
0.1629589 -0.3172598 1.1028399 0
0.0995076 -0.4208014 1.2505424 0
-0.1877324 -0.3116440 1.0596873 0
0.2203579 -0.4608552 1.3419365 0
0.0837709 -0.3337613 1.1076413 0
0.2196514 -0.4611901 1.3499749 0
0.2299681 -0.4018062 1.2454627 0
-0.1044930 -0.6044229 1.6435006 0
0.0955056 -0.2730294 0.9993871 0
-0.0716189 -0.2899555 1.0144913 0
0.4280986 -0.2729215 1.1377865 0
0.0993649 -0.3940591 1.1760439 0
0.4380008 -0.4908076 1.4858271 0
0.1833592 -0.4614853 1.3606451 0
0.8160046 -0.6464542 1.8982753 0
0.1997754 -0.2488705 1.0110223 0
0.4235538 -0.4240039 1.3564280 0
0.5058705 -0.4912736 1.5008094 0
0.0119156 -0.3074135 1.0355034 0
0.2058776 -0.4789512 1.4612201 0
0.2731220 -0.3007615 1.0891534 0
-0.9522891 -0.8639824 2.3351197 0
0.1058742 -0.3118858 1.0656005 0
0.3813890 -0.2123054 1.0754472 0
0.4754590 -0.1775471 1.1181804 0
0.1006433 -0.2668989 1.0286193 0
-0.2034685 -0.3196871 1.0800254 0
0.1986588 -0.3978020 1.2190202 0
0.0735191 -0.3857799 1.1954728 0
0.0777925 -0.4501875 1.3371707 0
0.0694276 -0.2616222 1.0151294 0
0.9759158 -0.4467708 1.6445194 0
-1.1880267 -0.8732814 2.2628827 0
-0.2839250 -0.3547972 1.1456193 0
-0.1083961 -0.5225573 1.4750717 0
-0.3482246 -1.1639035 2.4668601 0
0.0857711 -0.4780580 1.4741002 0
0.0971692 -0.4762238 1.4790365 0
2.9083352 -2.3249936 5.8328528 0
4.7715607 -2.9189136 5.8364429 0
6.0308909 -3.8371532 7.4625907 0
-1.1977342 -1.3954247 3.3108382 0
-0.1007487 -1.0547031 2.5613527 0
6.6627722 -3.1205297 7.0104861 0
3.1115913 0.4174582 3.8328893 0
0.0843391 -0.6094924 1.6751586 0
0.2198483 -0.6092809 1.7158648 0
-1.4694166 -0.6652840 2.2116551 0
0.1316030 -0.3103749 1.0979723 0
0.2247741 -0.3780027 1.2104920 0
-0.1134308 -0.4026693 1.1908677 0
-0.1525455 -0.4290301 1.2624832 0
-0.1804217 -0.2648766 1.0397856 0
-0.1796984 -0.3667237 1.1566504 0
-1.1629379 -0.8346562 2.4554470 0
-0.9115480 -0.9122841 2.2975616 0
0.0017727 -0.5424528 1.4728366 0
0.1061618 -0.3815133 1.1769263 0
0.4274317 -0.6669971 1.8005173 0
0.8875384 -0.9583357 2.3197558 0
-0.0834706 -0.3105873 1.0429891 0
0.0856560 -0.3310819 1.1145291 0
-0.1032404 -0.5233740 1.4053800 0
0.2967232 -0.3514357 1.2205845 0
-1.3963449 -0.6914335 2.1846764 0
-1.4895020 -0.6674232 2.2309279 0
0.0195296 -0.3568385 1.1105524 0
-0.3670322 -0.2964516 1.1231149 0
-0.1400697 -0.5271492 1.4549671 0
-0.2130887 -0.5396464 1.5056441 0
0.3927058 -0.5708529 1.6094158 0
0.1895887 -0.3845327 1.2179213 0
-0.4032432 -0.6714894 1.8283943 0
-0.0841767 -0.3103551 1.0430397 0
-0.1492489 -0.4285576 1.2435939 0
0.2809114 -0.3217041 1.1993033 0
0.1041078 -0.4401522 1.2810401 0
0.2276926 -0.4775148 1.3634915 0
-0.1093834 -0.2978916 1.0363978 0
-0.1203863 -0.3221010 1.0443996 0
-0.1094248 -0.5343414 1.4977186 0
-0.1177333 -0.3336321 1.0611931 0
-0.3666092 -0.4007367 1.2562165 0
1.0680269 -0.8075070 2.3429704 0
-1.4405864 -1.5115430 3.7091615 0
-0.9327630 -0.5822666 1.7915083 0
-0.1137518 -0.4031378 1.1928720 0
-0.9226149 -0.6175797 1.8434783 0
-0.1802692 -0.3520155 1.0934085 0
0.0933033 -0.3661176 1.1781442 0
-0.2685230 -0.2774112 1.0740734 0
0.1220407 -0.2780162 1.0385236 0
-0.1052267 -0.2976031 1.0309728 0
-0.1565562 -0.2847740 1.0288793 0
0.0888410 -0.5198678 1.4416256 0
0.1266997 -0.3130517 1.0884997 0
-0.1427166 -0.3631795 1.1430957 0
-0.3222312 -0.4714406 1.3621615 0
-0.0707625 -0.2899553 1.0110910 0
-0.0591194 -0.3637771 1.1223507 0
0.0520653 -0.3047738 1.0580428 0
0.0691760 -0.3839820 1.1652319 0
0.0121977 -0.3047789 1.0486251 0
-0.4720001 -0.6257074 1.7059066 0
-1.0549381 -0.5869854 1.9137137 0
0.1623227 -0.3312559 1.3742431 0
0.0738102 -0.5034531 1.3435551 0
-0.1953419 -0.2827552 1.0534075 0
0.4000096 -0.7562769 1.9921547 0
-0.1170039 -0.4687691 1.3439273 0
0.1984135 -0.4830722 1.3761039 0
0.1027636 -0.3947821 1.1971835 0
0.0998503 -0.4053081 1.2078913 0
-0.1475676 -0.4300049 1.2422572 0
-1.1852396 -0.5805448 2.0243182 0
-0.5180215 -0.3773601 1.2627515 0
0.2070847 -0.5969703 1.6475841 0
-0.1050958 -0.2978077 1.0305482 0
-0.0590908 -0.3638714 1.1247764 0
-0.4784459 -0.3184061 1.2027972 0
0.1600376 -0.5129037 1.3562429 0
-0.1374127 -0.4503536 1.3047067 0
0.0634330 -0.6545176 1.7611173 0
-0.1844165 -0.2892694 1.0271488 0
-0.1731285 -0.3507466 1.1248882 0
0.3427780 -0.3561729 1.2345542 0
0.0098192 -0.3223780 1.0513204 0
-0.1239104 -0.3332836 1.0676354 0
-0.1252265 -0.3411196 1.0704913 0
0.0652312 -0.3952488 1.1272507 0
0.0814442 -0.4037622 1.1073068 0
0.0972157 -0.4218820 1.2317486 0
0.3473122 -0.7231086 1.8681909 0
-0.3171758 -0.3468071 1.1419400 0
-0.4151404 -0.3818638 1.2421199 0
0.1746231 -0.5100241 1.3893881 0
-0.1375613 -0.4312199 1.2517377 0
-0.2903378 -0.3751883 1.1663419 0
0.2154022 -0.3119124 1.1404915 0
1.1602633 -0.9858528 2.0992885 0
-1.3226916 -1.5444074 3.4999216 0
0.2263274 -0.3662922 1.1914747 0
0.4067970 -0.9463772 2.4639935 0
-0.1393184 -0.3643316 1.1396382 0
0.2082315 -0.5946233 1.6382227 0
0.0718782 -0.3672779 1.1382017 0
1.0823251 -0.8470143 2.4215040 0
0.2402840 -0.3337797 1.1682752 0
-0.1324057 -0.3459557 1.0921333 0
-1.7110192 -1.5392253 3.8783486 0
-1.6778553 -1.5563316 3.6167507 0
0.0708026 -0.2596540 1.0148106 0
-0.0841341 -0.3117926 1.0378380 0
0.4074464 -0.7127712 1.9231079 0
-0.1383941 -0.9225192 2.3785577 0
-0.1300108 -0.4648676 1.3614217 0
-1.8632507 -1.5071331 3.8885200 0
-0.9116489 -1.5049740 3.3208108 0
2.4500239 -1.8299941 3.5801220 0
0.2831362 -0.4644779 1.3782326 0
0.0966077 -0.5547866 1.5640947 0
-0.2670429 -0.5035721 1.4202754 0
-3.4861410 -1.4045155 4.7373090 0
-0.3837587 -1.1008856 2.5087035 0
0.0100840 -0.3222134 1.0566509 0
0.0404852 -0.9691150 2.4659977 0
-0.0191868 -0.6188052 1.6765271 0
0.0874097 -0.3867935 1.1855993 0
-3.0554464 -1.4685470 4.4934177 0
-2.8110585 -1.5420940 4.3690987 0
-3.2408240 -1.3632243 4.4445424 0
0.0732436 -0.8320573 2.1364725 0
0.0947620 -0.3966800 1.1720641 0
0.2022088 -0.3182462 1.1046413 0
-0.9864349 -0.9476775 2.3927331 0
-0.4276403 -1.3858345 2.8724775 0
0.0957081 -0.3967451 1.1855140 0
0.5280222 -0.5275575 1.5629145 0
0.1845423 -0.3906067 1.2103406 0
0.1947602 -0.5415381 1.5172782 0
0.0764462 -0.3701878 1.1576924 0
-0.1338465 -0.5085555 1.4626305 0
-0.1206613 -0.2678019 0.9647184 0
0.0335774 -0.8811533 2.1844449 0
0.2870830 -1.0675370 2.7011855 0
0.0789898 -0.8359317 2.2664883 0
-0.5512556 -0.9144991 2.3166854 0
0.3976051 -1.1137594 2.8598709 0
-0.3302604 -1.4231694 3.1092563 0
0.3770995 -1.0776808 2.7241099 0
-0.1027167 -0.8922690 2.2867653 0
-0.0405789 -0.7200719 1.9314831 0
1.3306113 -2.2231405 4.5016456 0
1.0540750 -0.7527329 2.0241425 0
1.0579742 -0.7551189 2.0354018 0
7.8768673 -4.7744875 9.3112640 0
0.0627703 -0.6472920 1.7483013 0
0.1106838 -1.1179187 2.6440368 0
0.6381521 -0.2614674 1.5095761 0
-0.0848080 -1.0428897 2.4644177 0
-0.0475402 -1.0041860 2.0219393 0
0.0421955 -0.3694553 1.1423876 0
0.0690051 -0.3708446 1.1417261 0
0.1480315 -0.5055792 1.3878961 0
0.2748947 -0.4755306 1.3935722 0
0.3454354 -0.5174240 1.5019089 0
-0.0578475 -0.3632298 1.1246394 0
0.0968189 -0.3946267 1.1926229 0
0.1131741 -0.5193138 1.5992655 0
-1.2205956 -1.0047730 2.4019248 0
0.0668667 -0.3793613 1.1674314 0
0.4043674 -0.7096324 1.9066535 0
-0.0000561 -0.4426916 1.2574471 0
0.1914807 -0.5326666 1.4526774 0
0.1881720 -0.4612852 1.3648647 0
-0.1135098 -0.4020947 1.1961701 0
0.3145263 -0.5107438 1.4281517 0
0.1774386 -0.5537467 1.5316726 0
0.7103947 -0.6271563 1.8108587 0
0.2006125 -0.5896562 1.5904398 0
-0.1362459 -0.5960917 1.6696147 0
0.3335248 -0.3871030 1.2713939 0
0.1288670 -0.3373993 1.1383247 0
-0.0585885 -0.3633562 1.1231565 0
-0.2303534 -0.4462172 1.2902391 0
0.2231639 -0.4600916 1.3441662 0
0.1023719 -0.4901446 1.4432088 0
0.0695583 -0.3711247 1.1448034 0
0.0669434 -0.3792386 1.1690102 0
-0.0467949 -0.4104455 1.2081891 0
0.0401573 -0.3706313 1.1371865 0
-0.1713122 -0.3273240 1.0711979 0
-1.0571322 -0.7000312 2.1195438 0
0.2175892 -0.3795469 1.1961910 0
0.2246007 -0.4000198 1.2356597 0
0.1225369 -0.3410683 1.1161178 0
0.0451434 -0.6756297 1.9762553 0
0.0710222 -0.3853024 1.1688070 0
0.5207903 -0.4372119 1.4343449 0
-0.4512021 -0.4586594 1.3905749 0
-0.1135137 -0.5338100 1.4946975 0
0.2974842 -0.3509387 1.2240137 0
-0.0437385 -0.7211817 1.9316152 0
0.7466932 -0.9505581 1.7568154 0
-0.1276597 -0.4596366 1.3092891 0
0.0875765 -0.3866940 1.1874938 0
-0.1224155 -0.3701097 1.1372961 0
-0.1134036 -0.4032675 1.1914181 0
0.1921708 -0.3836632 1.2207408 0
-0.1613219 -0.4345425 1.3354609 0
0.0458939 -0.4973220 1.3618819 0
0.0296156 -0.5003939 1.2398841 0
-0.1413174 -0.3622928 1.1397308 0
0.2297391 -0.3643275 1.1942503 0
0.2330071 -0.3624564 1.2010489 0
0.0725148 -0.3727793 1.1510595 0
-1.1544416 -0.8168011 2.3791962 0
-2.2136157 -1.0196278 3.2235513 0
-1.0684094 -0.7557003 2.2296109 0
-2.6044638 -1.2114990 3.6165750 0
0.9629537 -1.1734673 2.1631286 0
-0.1216093 -0.7413046 2.0815356 0
0.4191301 -0.9822659 2.5244348 0
-0.1291214 -0.4586805 1.3377892 0
0.6014740 -0.6495678 1.8151411 0
0.0525288 -0.5007020 1.4154385 0
-0.1391727 -0.4209426 1.2325184 0
-1.9673960 -1.0113879 2.8873942 0
0.0780260 -0.3458416 1.1226509 0
-0.1056552 -0.6870822 1.8314399 0
-2.0892556 -0.9989913 3.0777407 0
-0.1164569 -0.4654411 1.3228402 0
-0.1180663 -0.9284898 2.4032922 0
0.1341652 -0.4576886 1.6150850 0
-2.0478811 -1.2777497 3.3591962 0
-1.8871703 -1.5018907 3.8756211 0
-2.0109148 -1.4714597 3.8585634 0
-0.1338057 -0.3717659 1.1382079 0
-2.4811957 -1.2086943 3.7531371 0
0.2141723 -0.7032525 1.9252278 0
-0.1215105 -0.8305683 2.1790972 0
0.2578846 -0.3143619 1.1651062 0
-1.1718942 -0.7497206 2.2840104 0
-0.9724115 -0.8436553 2.3014381 0
-1.0543427 -1.5798739 3.6442134 0
0.2607925 -0.6649247 1.8082293 0
0.0390347 -0.7556056 2.0167863 0
0.0880721 -0.5227423 1.4497589 0
0.2219702 -0.8318037 2.1798036 0
0.0454808 -0.3524074 1.1161531 0
-0.8110843 -0.6525412 1.9211622 0
0.5041098 -0.8070996 4.2905073 0
2.4079041 -2.5434084 6.1056871 0
-1.0264927 -1.4643744 3.1430490 0
-0.1063720 -1.2887189 2.9886932 0
-0.0703750 -1.1772498 2.7173593 0
2.8592231 -3.2327652 14.2964668 0
-0.0505317 -0.9505358 1.8584055 0
0.1487271 -0.3303336 1.2869432 0
0.2043329 -0.6278307 1.6936975 0
-1.7985405 -1.5044628 3.7843306 0
-0.0763027 -0.3827912 1.1585497 0
0.1371242 -0.5923045 1.5864297 0
0.1838937 -0.5046414 1.4095500 0
0.0771378 -0.6021760 1.6147263 0
0.2490172 -0.3265821 1.1854275 0
0.3456331 -0.3540505 1.2454185 0
1.0646191 -0.9427675 2.3729131 0
2.7586074 -2.0110674 3.9836435 0
0.2003269 -0.6246089 1.6731336 0
-1.6655065 -1.5477906 3.5919268 0
-1.3982700 -1.5773771 3.4892104 0
-1.5337702 -1.5718391 3.5114367 0
-1.3613806 -1.5355877 3.2675123 0
0.0805300 -0.8422510 2.2690146 0
-0.1819726 -0.3647777 1.1589339 0
0.1098220 -0.3452271 1.1393585 0
-0.1208617 -0.3695843 1.1407059 0
1.5712721 -1.3710754 2.8964033 0
0.1777104 -0.4572144 1.2977539 0
0.2452992 -0.4872208 1.4077957 0
0.1496116 -0.5064493 1.3934950 0
0.0867838 -0.4749875 1.3267475 0
0.3801045 -0.5107483 1.4566282 0
0.3312367 -0.4336255 1.3280746 0
0.3268408 -0.4039439 1.2957379 0
-0.1215286 -0.3741280 1.1805900 0
-0.1156376 -0.3943976 1.1881512 0
-0.3584411 -0.4476568 1.3602884 0
0.0948020 -0.4214868 1.2285662 0
-0.2965729 -0.4577903 1.3336357 0
0.0619237 -0.3819969 1.1732426 0
0.0999351 -0.4596623 1.2992760 0
0.2804648 -0.4858882 1.3857203 0
0.1018975 -0.4410094 1.2566293 0
0.2387983 -0.3537273 1.2221895 0
0.0027642 -0.3966911 1.1753597 0
0.2187859 -0.3987857 1.2284952 0
4.3167419 -2.2939484 5.8555527 0
0.8363957 -0.9936573 1.9573442 0
-0.0429695 -0.3691852 1.1612104 0
-0.0140450 -0.3793307 1.1663122 0
0.0869171 -0.5175014 1.4153044 0
0.2326892 -0.4674590 1.3645597 0
0.3838079 -0.5110255 1.4595522 0
0.1950172 -0.5329693 1.4676868 0
-0.0250849 -0.3671164 1.1276802 0
0.1782212 -0.3283714 1.1610221 0
0.0903367 -0.4681691 1.3144208 0
0.2893129 -0.4004996 1.2536669 0
0.2656594 -0.4275452 1.3121980 0
-1.0684984 -0.8645414 2.4248545 0
0.1016331 -0.3468272 1.1357809 0
-0.1284700 -0.3880078 1.1903679 0
0.2725620 -0.3094615 1.1940436 0
1.0384426 -0.9356254 2.3496523 0
1.0503613 -1.0888895 2.6941788 0
0.0907895 -0.3887558 1.1898464 0
-1.1932673 -0.9832283 2.3563545 0
0.0597538 -0.5288596 1.4111686 0
0.0939303 -0.4091535 1.1827421 0
0.1028061 -0.4688875 1.3615601 0
0.1071404 -0.3798769 1.1826072 0
0.0964509 -0.4609894 1.3062183 0
0.0810411 -0.3866751 1.1884688 0
0.0889875 -0.3896182 1.1844838 0
0.0394720 -0.5289275 1.4093499 0
0.0362535 -0.5363320 1.4181488 0
0.3780849 -0.5112391 1.4472622 0
0.0721412 -0.3846312 1.1699085 0
0.0737887 -0.3929070 1.1739076 0
0.1087264 -0.3443432 1.1365173 0
1.0558729 -0.9472529 2.3925388 0
0.9239057 -1.0360548 2.0809958 0
0.0752214 -0.4502376 1.2554097 0
0.0728297 -0.3943771 1.1690207 0
0.0022013 -0.5426998 1.4376550 0
0.3452880 -0.7517189 2.0002878 0
0.0743770 -0.9377874 2.5360031 0
0.8266355 -0.9533132 2.5139871 0
0.0848975 -0.5070758 1.5212691 0
-0.8569741 -1.2431275 3.0604382 0
-0.8759475 -1.6589081 3.4701271 0
0.0723484 -0.3858931 1.1755126 0
0.0713136 -0.3859070 1.1729610 0
0.0481168 -0.4199195 1.2243623 0
1.4011714 -1.1656855 2.3208587 0
-1.3825262 -1.5478765 3.6822584 0
-0.0963427 -0.4284247 1.2388324 0
-1.4883014 -1.5335308 3.4249055 0
-2.9330630 -1.7156379 4.2733893 0
2.4590635 -2.0926270 4.7433500 0
-0.1106150 -0.6030188 1.6309551 0
0.7647513 -0.9036002 2.8691881 0
-1.2377155 -1.5272301 3.6454825 0
0.3559023 -0.7755563 1.9885638 0
-2.4479780 -1.5086331 4.1915393 0
-0.8718432 -1.6523036 3.6753500 0
0.1021896 -0.4388774 1.2667681 0
-0.1646874 -1.2735097 3.0466301 0
-1.3493686 -0.0905572 4.2214489 0
0.0101620 -0.6413484 1.7635520 0
-0.1954526 -1.0665867 2.1262031 0
-0.1938411 -1.0397131 1.9985746 0
-0.1628066 -1.0631684 2.0805032 0
3.1662664 -2.5161307 6.3696651 0
0.1975345 -1.1638130 2.9581459 0
-0.0303717 -0.6157207 1.6360632 0
0.4025285 -0.6218947 1.6980782 0
-0.0668888 -0.5776112 1.5087544 0
-0.0031876 -0.5436575 1.4530432 0
-0.1182010 -0.7150419 1.8937178 0
-0.1321352 -0.5730847 1.5038894 0
-1.6760528 -0.9582179 2.6676455 0
-0.1427458 -0.4953531 1.3479058 0
-1.0442693 -0.8855917 2.1473553 0
0.1885896 -0.5115269 1.4084038 0
0.0378599 -0.5749393 1.5173011 0
0.0762275 -0.5963656 1.5758965 0
0.0385686 -0.5349812 1.4326530 0
-0.1437865 -0.4255223 1.2445372 0
-0.0992413 -0.5398756 1.4208643 0
0.0802956 -0.4773914 1.2951312 0
-0.1062591 -0.4781108 1.3142564 0
0.1112889 -0.5135707 1.3983272 0
0.0903050 -0.4492384 1.2871422 0
-0.1692281 -0.4459619 1.2703782 0
0.2362502 -0.6811682 1.7763327 0
0.1907209 -0.5330160 1.4524649 0
1.2491881 -0.9879778 2.5842991 0
-0.0527074 -0.5468791 1.4536825 0
-0.0514524 -0.7141752 1.9067689 0
0.2103243 -0.5089623 1.4136479 0
0.1559604 -0.5232236 1.3887166 0
0.0221961 -0.7405015 1.9368323 0
0.1181753 -0.5534145 1.4836110 0
-0.1408554 -0.4952326 1.3466907 0
0.2056533 -0.6489533 1.7214329 0
-1.8465079 -1.5085567 3.8986306 0
-2.0197260 -1.6098585 3.8502755 0
-0.1284340 -0.3877658 1.1952870 0
0.1483068 -0.6012208 1.6613092 0
0.1540308 -0.7834570 1.9840673 0
0.0471238 -0.4996785 1.3547094 0
-0.1342933 -0.5748812 1.5278068 0
-0.0656377 -0.5779526 1.5102538 0
0.0622257 -0.5806566 1.6268336 0
0.1206696 -0.5527064 1.4891487 0
-0.2128893 -0.4585339 1.3038148 0
-0.2000222 -0.5306399 1.4129401 0
-0.0506862 -0.7015818 1.8337642 0
-0.1199018 -0.6777632 1.7948580 0
-1.0978800 -0.8770062 2.2609351 0
0.0235852 -0.7423022 1.9482104 0
0.2327737 -0.4656616 1.3606467 0
-0.1167957 -0.4619318 1.2841276 0
0.0175362 -0.5505024 1.4825054 0
-0.1411347 -0.4207947 1.2373693 0
-0.1336961 -0.5218760 1.3803889 0
-0.1304124 -0.4544806 1.2734261 0
0.0676592 -0.4698110 1.3073379 0
0.0883410 -0.6442810 1.7214135 0
0.0861857 -0.6478686 1.7117802 0
-0.1117927 -0.5925821 1.5549619 0
-0.1696160 -0.5577644 1.4838701 0
-0.0724762 -0.4393470 1.2446491 0
-0.0322197 -0.4650583 1.2885809 0
-0.0174123 -0.4780389 1.3099713 0
-0.2159595 -0.4665365 1.3329778 0
-0.1053626 -0.4744189 1.3056263 0
-0.1344058 -0.4956004 1.3645687 0
0.0936047 -0.4226174 1.2239876 0
-0.1327299 -0.7065992 1.9473652 0
0.0880306 -0.4848710 1.3451985 0
-0.1990139 -0.4358792 1.2734663 0
-0.0722644 -0.4391863 1.2470492 0
-0.2485497 -0.4509794 1.3065882 0
-0.0002513 -0.4431424 1.2529789 0
-0.2491290 -0.4513000 1.3056374 0
-0.2105019 -0.4669859 1.3264769 0
-0.0259716 -0.6177355 1.6465511 0
-0.1294863 -0.4995567 1.3306137 0
0.0966173 -0.4215297 1.2344738 0
-0.9611681 -0.6391807 1.9384961 0
-0.1164750 -0.4606650 1.2930111 0
-0.1478953 -0.5144213 1.4072354 0
0.0965027 -0.4788893 1.3407809 0
-1.5159585 -1.0129433 2.8107204 0
-0.1163394 -0.6829470 1.8173437 0
-0.0174039 -0.4793328 1.3025503 0
-0.0034613 -0.4441722 1.2511318 0
0.0672887 -0.3771377 1.1749939 0
-0.1367605 -0.4463126 1.2537733 0
-0.1286099 -0.4602580 1.2935046 0
-0.1126041 -0.7264487 1.8553078 0
0.0680275 -0.4600409 1.2982672 0
0.0676070 -0.4310311 1.2540678 0
-0.1475974 -0.4291272 1.2419511 0
1.1165816 -0.9261347 2.3840654 0
-0.1053457 -0.4835205 1.3157854 0
-0.1392659 -0.5253426 1.4003851 0
-0.1413660 -0.4187246 1.2371325 0
-0.1294746 -0.4489841 1.2259884 0
1.1407708 -0.9157761 2.3937941 0
-0.1477649 -0.4417172 1.2944721 0
0.1262092 -0.5402139 1.4646517 0
0.1662575 -0.4692552 1.3104948 0
-1.9953512 -1.5718011 3.9151502 0
0.1262065 -0.5408597 1.4630263 0
0.3687899 -0.7355853 1.9681770 0
0.3202780 -0.7372129 1.9280533 0
0.0663420 -0.3733914 1.1694630 0
0.0797173 -0.4263719 1.2516979 0
0.0872586 -0.4569684 1.3040084 0
0.1790067 -0.5632349 1.5400066 0
0.2606908 -0.4742190 1.3597537 0
-0.0628525 -0.4650109 1.2894515 0
-0.0812183 -0.4633632 1.2928834 0
0.1929416 -0.5128950 1.4206368 0
0.2566984 -0.3587251 1.2325094 0
0.2100024 -0.4558491 1.4211061 0
0.6962599 -0.7254564 1.7248236 0
-1.8749567 -1.2702804 3.4894168 0
0.2844948 -0.4894449 1.4117318 0
0.0565082 -0.6430995 1.7180346 0
-2.2346766 -1.3168741 3.7284446 0
0.4029435 -0.6564763 1.7832118 0
0.4357727 -0.5526916 1.5906545 0
-0.1156793 -0.8791323 2.2415977 0
-1.6192707 -1.6743224 3.6015794 0
-1.2585464 -1.6484034 3.4960861 0
0.4284946 -0.5574732 1.5835260 0
-2.0485888 -1.6135108 3.8711281 0
-1.5334659 -1.5675099 3.5022516 0
-2.1021967 -1.5111927 4.0388489 0
-1.8252356 -1.6617198 3.7485979 0
0.1131162 -0.5127577 1.4066629 0
-2.3663568 -1.5979642 4.0535617 0
0.2147048 -0.7779611 2.1229210 0
0.0884621 -0.4159529 1.2173637 0
-2.0802650 -1.5776533 3.8733461 0
-0.9934023 -1.6101520 3.5696309 0
0.0857687 -0.6082978 1.6710806 0
0.2150277 -0.7707998 2.0652599 0
1.0923080 -0.8732194 2.4892597 0
-0.4786344 -1.5363954 3.3780990 0
-1.0423278 -0.8027529 1.9385655 0
-0.6465434 -1.4882618 3.2748456 0
0.1171463 -0.5121571 1.4303216 0
8.5567293 -5.6511755 10.4970703 0
0.1144088 -0.5207450 1.5918629 0
4.2420983 -3.3601596 7.8542242 0
-0.7753948 -0.9406006 2.3699164 0
-0.0704310 -0.5602308 1.4537681 0
-0.1657700 -0.5583075 1.4602309 0
0.3800489 -0.5354804 1.5652417 0
0.0204271 -0.5324900 1.4173203 0
0.1750401 -0.8519365 2.0625637 0
0.0860758 -0.5632100 1.4934187 0
-0.1167638 -0.4660575 1.3035635 0
0.0136991 -0.6699219 1.7600696 0
0.0866260 -0.7501152 1.9752325 0
-0.1221573 -0.5044767 1.3743593 0
-0.1230514 -0.4567389 1.2708448 0
-2.3386550 -1.0905813 3.4703505 0
-0.1719765 -0.4908777 1.3595415 0
0.0812362 -0.4981470 1.3602159 0
0.0462029 -0.4926261 1.3410445 0
0.0612725 -0.5192502 1.3900979 0
-0.1173672 -0.5850840 1.5024878 0
-0.0372852 -0.5072537 1.3594389 0
0.1147598 -0.5198588 1.4047740 0
0.0056089 -0.4715204 1.3074377 0
0.0362623 -0.5291942 1.4148794 0
0.1854820 -0.6187317 1.6110840 0
-0.0366870 -0.5065935 1.3710835 0
-0.0290378 -0.5637894 1.4639473 0
0.0755968 -0.5947430 1.5704554 0
-0.1154120 -0.5563604 1.4440178 0
-0.1203229 -0.5058565 1.3713583 0
-0.1444961 -0.5230304 1.4024273 0
0.3736427 -0.6385430 1.7069069 0
-2.4202886 -1.1741190 3.3986621 0
0.8402188 -0.9566948 2.5268242 0
0.3787351 -0.6397535 1.7196296 0
0.1949017 -0.5178577 1.4300426 0
0.3694408 -0.7346656 1.9570677 0
-0.1030695 -0.5250058 1.3969604 0
0.0793251 -0.5719720 1.4996970 0
0.0358234 -0.7608036 1.8604455 0
0.0231444 -0.5975814 1.5797496 0
0.0889173 -0.4729019 1.3334750 0
0.0835821 -0.5270070 1.4217783 0
0.0583739 -0.8906919 2.3417692 0
-2.4133513 -1.6603020 4.1478815 0
-2.0812745 -1.7349259 3.9488509 0
0.0109262 -0.6720104 1.7625182 0
0.1604958 -0.5802860 1.5003257 0
0.0058256 -0.4713782 1.3085917 0
-0.1197595 -0.4651319 1.3218969 0
-0.1188072 -0.5018786 1.3448575 0
0.0220510 -0.7024310 1.7592179 0
-0.1059083 -0.4748640 1.3063596 0
-0.1390398 -0.4432159 1.2641956 0
0.0949951 -0.4473305 1.2956817 0
0.3895209 -0.7287388 1.9431946 0
0.1216211 -0.5406595 1.4567159 0
-0.1376525 -0.4443840 1.2976590 0
-0.0019373 -0.8140553 1.7741231 0
-0.1040440 -0.5251630 1.3938547 0
-0.1167888 -0.4620272 1.3038023 0
0.2031589 -0.4856480 1.3871934 0
-0.1722947 -0.4389081 1.2607089 0
-0.1484964 -0.4377919 1.2540716 0
-0.1750469 -0.4669075 1.2740908 0
0.0039885 -0.5098376 1.3628111 0
-0.1191484 -0.5097095 1.3558383 0
-0.1126856 -0.5251060 1.3950386 0
0.1834519 -0.8828206 2.2140210 0
0.4009640 -0.7055097 1.8837076 0
0.3519576 -0.7131368 1.8437015 0
-0.1388328 -0.4387608 1.2544667 0
0.0491343 -0.6289429 1.6890365 0
-0.1167977 -0.4626717 1.3021188 0
0.0451044 -0.4993222 1.3510301 0
0.0308851 -0.5444155 1.4442501 0
0.3775841 -0.7539259 1.9276460 0
0.9164562 -0.9623207 2.3272574 0
0.0753748 -0.4574974 1.3156735 0
0.1887762 -0.4740500 1.3569505 0
-0.1105040 -0.4730792 1.3109088 0
0.1765702 -0.8702704 2.1531613 0
0.2485479 -0.4847583 1.4048038 0
-2.2186756 -1.7243427 4.0086713 0
0.0310177 -0.6632048 1.7158518 0
-0.0297000 -0.6932593 1.8038832 0
-0.1374205 -0.5357615 1.4266331 0
-3.7881131 -1.6652051 4.8454947 0
0.2252459 -0.8292998 2.1722164 0
-2.6950927 -1.2352259 3.7918217 0
-0.1805747 -1.1517001 2.8865035 0
-1.8184958 -1.0170633 2.9577627 0
-0.0648719 -0.4637134 1.2934408 0
-0.1370274 -0.5231362 1.3884122 0
-0.0286816 -0.6101084 1.5727338 0
-0.0705695 -0.4678446 1.2950853 0
-1.5347382 -1.0352473 2.8501585 0
1.3316799 -1.2175443 2.5646603 0
0.0674055 -0.4865649 1.3369932 0
-0.1426488 -0.4183575 1.2419147 0
-0.0319272 -0.6963255 1.8230501 0
-0.1476644 -0.5048445 1.3969092 0
-2.2915783 -1.5285968 3.9125907 0
0.0328036 -0.7036321 1.8366897 0
-0.1431631 -0.4420326 1.2278455 0
-2.0858357 -1.7344924 3.9497981 0
-0.1491493 -0.9390053 2.4632926 0
0.0739491 -0.6578774 1.7330638 0
-2.2461286 -1.5640650 4.0553279 0
-0.1007809 -0.4821144 1.3177134 0
1.0667205 -0.9500787 2.4211042 0
-0.1452220 -0.5132775 1.3845388 0
0.0662817 -0.4886975 1.3339405 0
-0.1558797 -0.9105279 2.3205817 0
0.0863648 -0.4845358 1.3244237 0
-1.1856098 -1.0360405 2.5676548 0
1.0943519 -0.9635108 2.4406381 0
0.4782924 -1.0409279 2.7124732 0
0.1967983 -0.8694386 2.3084786 0
0.0752837 -0.5431188 1.4565947 0
-2.4312088 -1.6259605 4.1225109 0
-2.1016140 -1.5055876 4.0392232 0
0.1026242 -0.8933818 2.4693251 0
-2.4837923 -1.5804907 4.1391315 0
-1.9189678 -1.5477377 3.8141670 0
0.0270065 -0.6624810 1.6929200 0
3.0602908 -1.9499661 4.7200303 0
2.8236482 -2.2559245 5.1375785 0
-2.0920722 -1.5186893 4.0312986 0
-2.0830021 -1.5136501 4.0193181 0
0.5305064 -1.1242187 3.0224693 0
-1.2789986 -1.6220547 3.8387797 0
-0.9063615 -1.6603585 3.4655480 0
1.2893659 -2.3409925 4.7298918 0
0.0771547 -0.7521040 1.9789633 0
-0.9862957 -1.8234459 4.0060339 0
-1.4644943 -1.5369517 3.7571807 0
-0.8600867 -1.6277524 3.6697140 0
0.0289716 -0.6207596 1.6479322 0
0.0988280 -0.6516530 1.7661998 0
-0.0987558 -1.1257875 2.3219893 0
-0.0783867 -1.2075776 2.5055332 0
0.0206984 -0.5329762 1.4114569 0
-0.0058066 -0.5265605 1.4037997 0
-0.0150110 -0.5502844 1.4400029 0
0.3808158 -0.7149594 1.8479364 0
0.0041957 -0.5692527 1.4670179 0
0.0736074 -0.5937772 1.5500604 0
-0.0043796 -0.6776496 1.8374208 0
0.0419925 -0.5387806 1.4050180 0
-0.0711014 -0.5602355 1.4510593 0
-0.1370855 -0.5073224 1.3854935 0
-0.1337088 -0.5181100 1.3917578 0
-0.1401407 -0.5160671 1.3955824 0
0.1637904 -0.5957819 1.5515453 0
-0.1009006 -0.5418233 1.4141603 0
-0.0792197 -0.5254753 1.3957183 0
-0.4481887 -0.5450454 1.5621145 0
-0.0288215 -0.5654864 1.4626085 0
0.1654539 -0.5955098 1.5584761 0
0.7618703 -0.8117381 2.1733596 0
0.1404361 -0.5665490 1.4976922 0
-0.1363728 -0.5072241 1.3848612 0
-0.1448733 -0.5217627 1.4001590 0
-0.1150003 -0.5516883 1.4429621 0
-1.9443846 -1.6139520 3.8123980 0
-0.1670981 -0.5583052 1.4623989 0
0.1874327 -0.6051466 1.5801188 0
0.1641469 -0.5957109 1.5552449 0
0.2506663 -0.4864347 1.4096882 0
-0.0145005 -0.5494666 1.4461479 0
0.0880090 -0.4843504 1.3434565 0
0.0872361 -0.4960436 1.3625033 0
-0.1214534 -0.5031115 1.3776678 0
0.1644992 -0.5566060 1.4880236 0
-0.2493839 -0.5163630 1.4276223 0
0.0045643 -0.5685878 1.5077343 0
0.0475183 -0.5344665 1.4167012 0
-0.1828508 -0.5052059 1.3936732 0
-0.1399622 -0.5163019 1.3948876 0
-0.4117461 -0.5913525 1.6161267 0
0.4297419 -0.6687528 1.7961333 0
-0.0431058 -0.6043963 1.5279366 0
0.3281621 -0.5263234 1.4867778 0
0.7882895 -0.9460064 2.2006409 0
-0.0155635 -0.5513825 1.4295665 0
0.0962593 -0.6066723 1.5561484 0
-0.0924060 -0.5117038 1.3849589 0
-0.2221075 -0.4931984 1.4034218 0
0.0031244 -0.5694354 1.4667630 0
0.1404205 -0.5656022 1.5068369 0
0.1946160 -0.5868219 1.5603902 0
0.0823582 -0.5211026 1.3870893 0
0.0479181 -0.5340332 1.4220127 0
0.1051359 -0.4543297 1.3192182 0
-0.1290451 -0.4905059 1.3786814 0
-0.1214146 -0.5078716 1.3953370 0
-0.1346650 -0.5100709 1.3892275 0
0.1114323 -0.5143662 1.3996825 0
0.0600407 -0.6334222 1.6473926 0
0.0391381 -0.5745743 1.4882214 0
0.0759340 -0.5425274 1.4585583 0
0.1855185 -0.5059531 1.4064834 0
-0.0700777 -0.5616236 1.4486461 0
0.2550469 -0.4819746 1.4200684 0
0.1917274 -0.4731979 1.3586698 0
0.1960934 -0.6223291 1.6471053 0
0.7889608 -0.9472741 2.2043891 0
0.2950653 -0.4845428 1.4230473 0
0.0045954 -0.5069514 1.3809055 0
0.0660505 -0.5474936 1.3906862 0
0.0276388 -0.5429406 1.3950881 0
-0.4567193 -0.6209769 1.6420319 0
-0.1399653 -0.5136272 1.3945264 0
0.0822196 -0.5387011 1.4334518 0
0.0859674 -0.6176386 1.6277273 0
0.0817054 -0.5540746 1.4552633 0
-0.5600514 -0.7031535 1.8477505 0
0.0148579 -0.5512321 1.4321461 0
-1.1446214 -0.8164388 2.3615079 0
0.1919499 -0.5893153 1.5561222 0
0.0065616 -0.6005624 1.5410193 0
-0.4274290 -0.6216540 1.6510645 0
-0.1419586 -0.5264402 1.3973902 0
0.0286877 -0.5773880 1.4566605 0
0.0132029 -0.6006711 1.5516905 0
0.2836260 -0.4883942 1.4115072 0
0.3805253 -0.7883913 1.9853512 0
-0.1225246 -0.5526776 1.4478710 0
0.4200578 -0.7131922 1.8688810 0
-2.6481607 -1.5701408 3.9533415 0
-2.0334692 -1.7395697 3.8772435 0
0.4303280 -0.6688583 1.7985865 0
0.0935085 -0.6559260 1.7509435 0
-0.0615060 -0.9004546 2.3534100 0
0.0000608 -0.5401461 1.4226931 0
0.4554683 -1.0623651 2.7254441 0
-0.1432750 -0.5131800 1.3857300 0
-0.1133220 -0.5245511 1.3958963 0
-2.5852532 -1.3201590 3.9803987 0
0.1001191 -0.6394131 1.7482162 0
-1.6627975 -1.4041233 3.4228461 0
0.3860216 -0.7016603 1.8520476 0
-0.0456482 -0.6050486 1.5677366 0
-2.3179410 -1.6580722 4.0516663 0
0.0149591 -1.0119717 2.6243889 0
4.0229068 -1.7071398 5.6687026 0
0.7453432 0.1120779 3.6705666 0
0.1994977 -0.4847583 1.3780495 0
-2.1116049 -1.5040705 4.0421720 0
0.1898965 -1.0268822 2.5598080 0
-2.2208068 -1.7202581 4.0118065 0
-0.6427608 -1.6307656 3.4319198 0
-2.8248408 -1.6644868 4.1674094 0
0.1678168 -0.5004046 1.3893442 0
0.0616575 -0.6332496 1.6610858 0
0.0921355 -0.5282170 1.4273674 0
0.3877777 -0.9337199 2.3881476 0
4.6957307 -2.7018323 6.9236674 0
0.3895978 -0.7588289 1.9614098 0
-1.4182965 -1.5950428 3.5094869 0
-0.4167982 -1.3649534 2.7710500 0
-0.4187415 -1.1521193 2.5343666 0
-0.4044074 -1.4144843 3.0175750 0
12.0443764 -6.6166258 15.4185667 0
12.6532211 -6.9184427 16.1053448 0
0.1703342 -0.7962266 2.0611615 0
0.0818515 -0.6299690 1.6158856 0
-0.1394307 -0.5938471 1.5231398 0
0.0718486 -0.7517855 1.9584386 0
-3.1281469 -1.7185053 4.2497621 0
-1.0048745 -1.4453278 3.3007634 0
-2.0336137 -1.3878658 3.7977188 0
0.2091961 -0.9772157 2.5529618 0
0.0744720 -0.6351137 1.6181545 0
0.3847503 -0.6597015 1.7616354 0
-0.0077301 -0.6569037 1.6618077 0
0.0489281 -0.7009156 1.8061532 0
0.3322118 -1.0471085 2.5821114 0
0.0336724 -0.7642910 1.8488460 0
-0.2058575 -1.2181590 3.1209691 0
-2.3232164 -1.4342511 4.0974097 0
0.0485727 -0.5347587 1.4213619 0
-2.1055057 -1.4522599 3.9656730 0
-2.0504158 -1.5971645 4.0046387 0
-1.2133322 -0.7082685 2.2900553 0
-3.4912498 -1.8473250 4.6238294 0
0.8132786 -0.9521671 2.2313113 0
0.1946207 -1.0130328 2.7001681 0
0.1698894 -0.7822933 1.8787328 0
-0.0896895 -0.4900216 1.3703272 0
0.4309205 -0.9621209 2.4649224 0
-1.2667035 -1.5565979 3.4122188 0
0.1742654 -0.8367743 2.1481388 0
-2.3892915 -1.3442955 3.6489072 0
0.0492644 -0.6222944 1.5811514 0
0.0292340 -0.9340098 2.4516187 0
0.0505969 -0.6220948 1.5905286 0
-0.1008076 -0.5404243 1.4202143 0
0.4046952 -0.7965949 2.0342607 0
-0.1623826 -0.9808307 2.4317093 0
0.3847551 -0.6766412 1.7688731 0
0.0355464 -0.8906292 2.2196488 0
0.2118003 -1.0537494 2.6614356 0
0.8360230 -0.8350204 2.2940805 0
0.0306862 -0.8741446 2.1464453 0
-0.0557617 -0.8482400 2.1050928 0
0.1911632 -0.5858203 1.5557269 0
0.0881014 -0.5499892 1.4804007 0
0.0742729 -0.7049936 1.7592539 0
0.1799918 -0.7146577 1.7817508 0
-0.1139858 -0.6906195 1.7136973 0
0.0839426 -0.5803494 1.5156305 0
0.1310475 -0.5897598 1.5362935 0
-0.1086438 -0.6607833 1.6159805 0
0.3504560 -0.7498565 1.8829391 0
0.8697620 -0.9560587 2.2775497 0
0.1290995 -0.5891259 1.5356340 0
0.2157056 -0.9278150 2.2371371 0
-0.0581100 -0.8499190 2.1139202 0
0.2831414 -0.8889814 2.1970291 0
-0.1779798 -0.6065300 1.5208597 0
-0.1637444 -0.5772887 1.4602758 0
0.1019421 -0.7171955 1.7658583 0
-0.1035553 -0.5963603 1.5162177 0
-0.1104917 -0.5918115 1.4895964 0
-0.1138443 -0.5243504 1.3959564 0
0.0131485 -0.7258121 1.8094758 0
-0.0106380 -0.6585721 1.6315098 0
0.0823612 -0.5809503 1.5068936 0
-1.0999420 -1.7261736 3.8666656 0
0.0652282 -0.7412204 1.8781662 0
0.0341306 -0.5673939 1.4699178 0
0.0391398 -0.6135430 1.5484442 0
-0.1386994 -0.8797206 2.1865215 0
0.4355461 -0.8097326 2.1027889 0
0.0726480 -0.5450141 1.4474567 0
-0.0537638 -0.5487790 1.4226279 0
-0.2197782 -0.6984484 1.7181339 0
-0.1317306 -0.9762703 2.2130899 0
-0.1112066 -0.6603968 1.6283636 0
0.0226761 -0.7572561 1.7704535 0
-2.1973360 -1.3996124 3.4372563 0
-0.0118865 -0.6580803 1.6205398 0
-0.0971261 -0.5998421 1.5214199 0
-0.1149289 -0.5914757 1.5007157 0
-0.1435021 -0.8769471 2.1852314 0
0.0841634 -0.5534043 1.4586942 0
-0.1444870 -0.5219797 1.3994118 0
-0.0718440 -0.6755610 1.6423514 0
-0.1094944 -0.7076853 1.7514813 0
0.1762883 -0.6454421 1.6188298 0
0.0014262 -0.6581005 1.6042407 0
-0.0550126 -0.5585700 1.4501110 0
0.0675270 -0.5780153 1.4920269 0
-0.1119382 -0.6625027 1.6484542 0
-0.1271396 -0.5766889 1.4623818 0
-0.0204822 -0.9680508 2.1865246 0
0.0045567 -0.6638606 1.6550603 0
-0.1181184 -0.5500196 1.4455974 0
-0.1181595 -0.5585708 1.4513371 0
-0.0636145 -0.6020723 1.5213383 0
-0.0745676 -0.6781481 1.6731235 0
0.0373728 -0.7703970 1.9032816 0
-0.0591230 -0.8368722 2.0415230 0
0.0485026 -0.6645132 1.6239526 0
-0.0941033 -0.5760266 1.4726511 0
0.1281488 -0.5907936 1.5326164 0
-0.1493091 -0.8356480 2.0428400 0
-0.1491357 -0.8285577 2.0127430 0
0.0505573 -0.6064185 1.5694493 0
0.0725663 -0.5746271 1.4768997 0
-0.1188151 -0.5591166 1.4483005 0
-0.0732708 -0.6777724 1.6680261 0
0.7729483 -0.9409634 2.1927280 0
0.0427575 -0.8422280 2.0944998 0
0.1921015 -0.5885435 1.5544422 0
-0.0629434 -0.6022601 1.5147153 0
-0.1973246 -0.5345613 1.4195029 0
0.0868715 -0.5601342 1.5000770 0
-0.1120269 -0.6801881 1.6775731 0
-0.1068834 -0.6919657 1.7100471 0
0.0620982 -0.6000447 1.5139542 0
-0.1739031 -0.8734812 2.2607517 0
0.0700217 -0.6503768 1.6036465 0
-0.1177922 -0.5884377 1.4873927 0
0.0230867 -0.5959191 1.5083340 0
0.0277494 -0.7306467 1.8742841 0
0.0292615 -0.8012910 1.9726301 0
0.1702923 -0.7866724 1.9323899 0
-0.2017199 -0.5329925 1.4159464 0
0.0923657 -0.8367615 2.2190216 0
1.1322000 -1.1774943 3.1832020 0
-0.0078006 -1.0845475 2.8082788 0
-0.1752808 -1.0297960 2.6223860 0
3.9018335 -2.4481251 6.6299572 0
1.1326833 -2.2318623 5.5630431 0
0.6780055 -1.2947819 3.1868477 0
-1.5587437 -1.4510121 3.6491871 0
3.2539704 -2.3998656 5.3603873 0
-3.8625357 -1.5398151 4.9611526 0
-0.4640081 -1.6984863 3.7324071 0
-0.5074741 -1.8257676 4.0466776 0
0.3655639 -1.9043100 4.6585107 0
-0.2444051 -1.2649616 2.5234277 0
0.0090876 -0.6046147 1.5302701 0
2.2294149 -1.9593303 5.0283532 0
-0.0462978 -0.6893100 1.7039363 0
-0.7355176 -0.6943308 1.9528199 0
-0.1068976 -0.6813393 1.6857188 0
-2.2954440 -1.4369967 4.0144362 0
-1.9602687 -1.5867664 3.6375299 0
-0.0520556 -0.6233141 1.5507917 0
0.0619269 -0.6125407 1.5494255 0
0.0445055 -0.8418213 2.1027412 0
0.1432576 -1.0926071 2.7320745 0
-2.4610093 -1.6293209 3.9597638 0
-1.1862226 -1.5984602 3.4217670 0
-2.1636775 -1.5742743 4.0254335 0
0.0582090 -0.7994734 1.9805229 0
-1.2936888 -1.6365454 3.4523392 0
0.9122074 -1.8911901 4.7473459 0
-0.5348974 -1.3039590 2.9700723 0
0.3681224 -0.7001585 1.8164289 0
-0.0127311 -1.1234696 2.8183923 0
-0.0205410 -0.8717542 1.8550578 0
-0.2193274 -1.3285460 3.3520117 0
0.7902074 -0.9493738 2.2254775 0
0.0071319 -1.1387099 2.8818619 0
-0.9986935 -0.7387549 2.2114649 0
0.2794428 -0.7245492 1.8047494 0
0.3316069 -0.7613761 1.8867856 0
0.0734539 -0.7728352 1.9149705 0
0.1393228 -0.8008148 1.9350255 0
0.0548922 -0.7971246 1.9548299 0
0.1453062 -0.7706403 1.8966686 0
0.3619018 -0.6996038 1.8030766 0
0.0219193 -0.6588395 1.6175579 0
0.0326708 -0.6083480 1.5385597 0
0.1459935 -0.6640222 1.6490362 0
0.3830663 -0.8228904 2.0300639 0
0.2350696 -0.6852242 1.7127229 0
0.1514185 -0.8762575 2.1281679 0
0.1336111 -0.9036859 2.2150395 0
0.3633216 -0.6994708 1.8061134 0
0.3220318 -0.7148587 1.8156610 0
-0.0320069 -0.7033021 1.7071403 0
-0.0406560 -0.6589062 1.6007253 0
0.0716185 -0.6079711 1.5501256 0
-4.5230446 -2.0379720 5.5206609 0
-2.2917325 -1.4172378 3.9663756 0
-2.6030049 -1.5517608 4.1931195 0
0.0176991 -0.6590135 1.5768168 0
-0.9287466 -0.9338371 2.3163984 0
0.3715640 -0.8214785 2.0141077 0
-0.1088717 -0.6570388 1.5995512 0
-0.0331626 -0.6112217 1.5300987 0
-0.0430071 -0.6586828 1.6371449 0
-0.0877626 -0.6615059 1.6106615 0
0.3881030 -0.7104024 1.8221821 0
0.0654631 -0.7189528 1.7433187 0
1.0209361 -1.0988836 2.8696284 0
-0.1057383 -0.5909023 1.4896287 0
0.0034281 -0.6568193 1.6047373 0
0.0689691 -0.6383048 1.5856153 0
0.0209246 -0.6591299 1.5947953 0
0.0226748 -0.6601557 1.6046594 0
-0.1763652 -0.5897985 1.5212977 0
0.1883584 -0.7586792 1.8308311 0
0.0767024 -0.6153880 1.5700060 0
0.0356270 -0.8254532 2.0062761 0
0.1464194 -0.6645506 1.6453427 0
0.0184819 -0.6584216 1.6068788 0
0.0694274 -0.6369172 1.5927703 0
0.0530736 -0.6642031 1.6358101 0
-0.0894203 -0.6612689 1.6144841 0
0.0229667 -0.7034540 1.7159320 0
0.0612461 -0.6494601 1.6126773 0
0.3715208 -0.7662371 1.9117018 0
0.0474079 -0.7288964 1.7440902 0
0.1274967 -0.9011986 2.2014363 0
0.0637659 -0.7205266 1.7545477 0
-0.1093653 -0.6575020 1.6048920 0
-0.0190439 -0.5989074 1.5206054 0
-0.0407488 -0.6586629 1.6062740 0
0.1831564 -0.6210619 1.6054257 0
0.1938025 -0.7346350 1.8515140 0
0.0189050 -0.7102827 1.7189424 0
-0.0307589 -0.6122031 1.5276783 0
0.3458435 -0.9532985 2.2948711 0
0.3548805 -0.6982117 1.7886420 0
0.1639307 -0.7409332 1.7970370 0
-0.2128368 -0.6017660 1.5430007 0
0.0749450 -0.6162786 1.5645180 0
0.0004482 -0.6050686 1.5325170 0
0.0128872 -0.8607810 2.0871916 0
0.0092141 -0.7032441 1.7112283 0
0.1784650 -0.7264101 1.7905861 0
0.1714181 -0.7306229 1.7840656 0
0.2451430 -0.8425299 2.3832221 0
-0.1081536 -0.6912010 1.6758500 0
0.0189286 -0.6644229 1.5874325 0
-0.3532491 -0.7137008 1.7450132 0
0.0720942 -0.8087139 2.0850008 0
-0.1063691 -0.6619913 1.6152288 0
0.0173941 -0.7355680 1.7571747 0
0.0402792 -0.7614779 1.7733459 0
0.2750680 -0.7243841 1.7948586 0
-0.1030559 -0.7074438 1.6717293 0
0.3625441 -0.6971866 1.7939148 0
0.2965962 -1.0033826 2.4066858 0
-0.0501274 -0.6858083 1.6877373 0
0.2187957 -0.6525760 1.6627324 0
-1.9344677 -1.6051737 3.8042564 0
0.0129750 -0.7020477 1.7567005 0
0.0670176 -0.9924130 2.6162851 0
0.0768802 -1.4640733 3.5417154 0
0.0872065 -0.5517613 1.4791462 0
4.7823353 -3.6754129 8.6534481 0
-2.3467438 -1.6526688 4.0727897 0
0.0739729 -0.6310323 1.6220279 0
-1.1813397 -0.7889788 2.3993580 0
0.1998800 -1.0271858 2.6121125 0
-0.3480730 -1.8067045 4.3977003 0
-0.1629617 -1.5969158 3.7846704 0
5.8047781 -4.0836530 11.0029192 0
7.0390320 -4.3492141 10.9143591 0
6.1050029 -4.2947025 11.5361719 0
7.6616459 -4.6605811 11.7680540 0
-3.1842926 -1.7953264 4.5404534 0
6.9357929 -4.8915358 11.8269606 0
1.6444782 -2.0011253 4.9060884 0
-0.6765251 -1.5472037 3.3647425 0
4.3981690 -4.1214952 8.4821138 0
-0.3240661 -1.3667223 2.8398354 0
0.3546431 -1.0866611 2.7070007 0
0.2895920 -0.8132383 1.9718324 0
0.3831500 -0.8090867 2.0078855 0
0.0952351 -0.7167315 1.7265654 0
0.2933358 -0.6843321 1.7434268 0
0.1967790 -0.7168005 1.7643677 0
-0.0024013 -0.6004146 1.5282621 0
0.3299058 -0.7605117 1.8884070 0
0.3029533 -1.1697582 2.9201231 0
-1.0065463 -0.8736866 2.3885438 0
0.0715129 -0.6598321 1.6383028 0
0.1718033 -0.7221599 1.7597018 0
-0.0485913 -0.6887200 1.6698228 0
-0.0282958 -0.6602123 1.6082227 0
0.0743533 -0.6324975 1.5875572 0
0.0517223 -0.6632429 1.6255773 0
0.1410113 -0.7706066 1.8876557 0
0.0530680 -0.6630649 1.6354313 0
0.0579258 -0.7614529 1.8090519 0
0.0287027 -0.7675577 1.8286343 0
0.0736232 -0.6318154 1.5858091 0
0.1319071 -0.7982266 1.9056470 0
0.0347268 -0.8253372 1.9999634 0
0.4006063 -1.0356593 2.5369415 0
0.3550389 -1.0817765 2.6644728 0
0.4514086 -0.8183879 2.0492485 0
0.0228146 -0.6285702 1.5640521 0
-0.9929523 -0.8691866 2.3517628 0
0.0636664 -0.6917989 1.6743480 0
-0.0284393 -0.6596819 1.6128874 0
0.0553230 -0.7298554 1.7407254 0
0.4084464 -0.8868281 2.1607585 0
-2.9419162 -1.7124093 4.2908049 0
0.2998215 -0.8812923 2.1068566 0
-0.0465256 -0.7013555 1.6810552 0
0.3728474 -0.7848023 1.9523920 0
0.1883304 -0.6187615 1.6162736 0
0.0438692 -0.6665646 1.6349149 0
0.6547183 -0.8902102 2.2349837 0
0.1421703 -0.7294797 1.7691576 0
0.1252674 -0.7805064 1.8653557 0
0.0499785 -0.6253113 1.5763534 0
0.3166434 -0.7155561 1.8143412 0
-0.1014187 -0.6829301 1.6272815 0
0.1196223 -0.7712485 1.8163774 0
0.0360653 -0.9006101 2.1932352 0
-0.1453714 -0.9121997 2.2114041 0
-2.4366779 -1.4449983 3.9360762 0
0.0062104 -0.7190697 1.7127596 0
-0.0026685 -0.6901478 1.4726621 0
0.0760747 -0.6322946 1.5888009 0
-0.9808740 -0.9502481 2.3758931 0
0.0222481 -0.6638607 1.5841063 0
-0.0330977 -0.6840622 1.6586529 0
-0.2228885 -1.2030336 3.0760505 0
0.1694262 -0.7887419 2.0000520 0
-2.0543077 -1.3300154 3.7268059 0
2.3282089 -2.4726737 6.3311439 0
4.1660748 -3.9999373 9.4982233 0
7.2901244 -4.5173421 11.3387899 0
2.1587937 -2.0448368 5.3919392 0
0.2243133 -0.9336941 2.2709117 0
3.5634382 -2.3708978 5.4243279 0
0.1443137 -0.8160805 1.9499308 0
0.2786556 -0.7248373 1.8051342 0
0.1737558 -0.7071194 1.7387487 0
-2.4390316 -1.5488757 4.0440812 0
-2.9165616 -1.7927946 4.4824643 0
3.5994446 -2.3878424 5.4690003 0
0.1453141 -0.8163393 1.9560413 0
0.0735848 -0.6457837 1.5973457 0
-2.7601211 -1.3704325 4.2240286 0
-0.0180377 -1.1517417 2.9433165 0
-0.0062818 -0.9097862 2.2344916 0
-1.1579790 -1.5529504 3.6050603 0
-0.0745667 -1.4514011 3.7066233 0
-0.7867603 -1.1861361 2.7924340 0
-0.2676395 -1.2857882 2.5146310 0
-2.6207824 -1.4730380 4.3748198 0
-0.8966353 -1.5805331 3.8110366 0
0.1814851 -1.1005472 2.7209132 0
0.4281764 -1.1544456 2.8690345 0
0.1596580 -0.8002871 1.8955477 0
0.5207654 -0.2906129 2.6814785 0
0.5617191 -1.4168390 3.5888426 0
0.7783392 -0.8848316 2.3066826 0
-2.6360521 -1.3421365 4.1082172 0
-0.0886735 -0.6594933 1.6075865 0
-2.2195883 -1.4189006 3.7364006 0
-0.1068586 -0.6645547 1.6073370 0
0.0160002 -0.6647308 1.6225550 0
2.9087942 -2.0444179 5.3127069 0
0.0482078 -0.7881857 1.8731511 0
-0.8333239 -0.9745473 2.6054344 0
-0.9030914 -1.5745729 3.8128810 0
-1.8748759 -1.1624328 3.3623140 0
0.0183498 -1.1421846 2.9828570 0
0.4133820 -0.8899288 2.1656866 0
0.3355409 -0.9237027 2.2141523 0
0.0198469 -0.8575844 2.0191722 0
-0.0025102 -0.7182457 1.7009898 0
0.1684563 -1.0852728 2.6464860 0
-0.9801949 -0.8773646 2.3505106 0
-0.9787685 -0.9426214 2.3779328 0
0.1275316 -0.7979532 1.8736312 0
0.1809241 -0.7849274 1.8840858 0
0.4261175 -0.8021725 1.9948252 0
0.3551626 -0.8094686 1.9717381 0
-0.0386251 -0.9798546 2.3503289 0
0.1294754 -1.0432624 2.4352937 0
-0.0011926 -0.6918313 1.6680496 0
0.0194372 -0.7112905 1.6945255 0
0.0450463 -0.7285703 1.7197400 0
0.1703386 -0.7411725 1.7855978 0
0.2111882 -0.7804453 1.8561270 0
0.1836977 -0.7865103 1.8994342 0
0.0168295 -0.8692788 1.9813286 0
0.0417570 -0.7626656 1.9298853 0
0.3146332 -0.8988651 2.1228759 0
0.1557929 -0.8437349 1.9878218 0
0.1133739 -0.8315473 1.9276075 0
0.1741185 -0.8805925 2.1017916 0
0.1304700 -0.7622885 1.8269871 0
-1.9404961 -1.2164195 3.5077341 0
0.0427180 -0.8616136 2.0641630 0
0.0210676 -0.7030460 1.6868778 0
0.0468731 -0.7282761 1.7293489 0
0.6021161 -0.8492728 2.1104584 0
0.0399328 -0.6991471 1.6917269 0
0.0203016 -0.7038580 1.6816149 0
0.1614797 -0.7430539 1.7826362 0
0.0048252 -0.7054111 1.6798512 0
-0.1121706 -0.7324011 1.7093718 0
-0.1244743 -0.7384328 1.7716451 0
-0.0160563 -0.7400869 1.7368054 0
0.1765764 -0.7062445 1.7468636 0
-2.0804472 -1.2525024 3.6721482 0
-0.1825968 -0.7078516 1.6918749 0
-0.0779704 -0.6963807 1.6635140 0
0.0247086 -0.7501232 1.7648842 0
-0.1055852 -0.7047457 1.6735499 0
-0.1960764 -0.7029629 1.6889012 0
-0.0631168 -0.8274330 1.9577761 0
0.3391672 -0.9259646 2.2297666 0
0.0214075 -0.9056683 2.1240706 0
0.2952495 -0.8833424 2.0936706 0
-0.2078069 -1.0065266 2.4484453 0
0.7145913 -0.8673007 2.2690556 0
0.7227782 -0.9206741 2.3578858 0
0.1563872 -1.0852741 2.6659145 0
-0.1312852 -0.7338920 1.8082898 0
-0.1216550 -0.7482291 1.7509886 0
0.1415330 -0.7457075 1.7981690 0
-0.0179922 -0.7400309 1.7339382 0
0.0055473 -0.7216059 1.7077109 0
-0.1947090 -0.7036813 1.6820953 0
0.6624824 -0.8721930 2.2532387 0
-0.1524695 -0.8287109 1.9459465 0
-0.1098503 -0.7341245 1.6969383 0
-0.1484703 -0.8526834 2.0213075 0
0.9669266 -1.0827547 2.8200421 0
0.0324985 -0.6772797 1.6446518 0
0.7360591 -0.9249323 2.3828793 0
-0.1143193 -0.7344590 1.7240912 0
0.1778632 -0.9102207 2.0938406 0
0.2978914 -0.8826035 2.0901730 0
0.3193082 -0.8950650 2.1322806 0
0.0047600 -0.7211659 1.7025803 0
-0.1047936 -0.7051603 1.6714605 0
0.1429881 -0.7280977 1.7675236 0
-0.0441259 -1.5139341 3.9382975 0
