# .PCD v.7 - Point Cloud Data file format
VERSION .7
FIELDS x y z rgb
SIZE 4 4 4 4
TYPE F F F F
COUNT 1 1 1 1
WIDTH 1452
HEIGHT 1
VIEWPOINT 0 0 0 1 0 0 0
POINTS 1452
DATA ascii
0.1572649 0.2579263 0.4159043 0
-0.2675430 0.2573849 0.5062444 0
-2.6248817 -1.3189621 3.6345828 0
5.0485358 -3.6008222 9.2319031 0
-0.2234038 0.1450107 0.6495343 0
-1.4767848 -1.4560013 4.5677166 0
-0.2999716 0.2425785 0.4572019 0
-2.3551800 -1.6614040 5.0230255 0
-1.7034217 -1.3002449 4.6967993 0
4.2242999 -4.0931330 11.1162081 0
0.0114559 0.3100545 0.2700431 0
0.1808080 0.2169123 0.5336702 0
-1.2574781 -1.7727709 5.3129792 0
-0.0840133 0.2864093 0.3270563 0
4.3177285 -4.2125196 11.4316416 0
0.0997065 0.3289641 0.2720934 0
0.1007266 0.2546459 0.4215419 0
-0.2442571 -0.6677977 2.6093109 0
-0.0261388 0.2273503 0.4935505 0
-0.2428976 0.2491455 0.5047065 0
0.0122116 0.3109340 0.2731451 0
0.0920061 0.3143271 0.3155963 0
-1.3055344 -1.5189586 5.2885866 0
0.2965373 -0.9692975 3.3001919 0
0.5838751 -1.1273096 3.6378884 0
0.6713932 -0.8816386 4.0100574 0
0.0950454 0.3193307 0.2409346 0
-0.1341096 0.3108122 0.2543353 0
3.9464543 -2.9069004 9.1742401 0
-0.1977101 0.1571577 0.7131293 0
-0.2490762 0.2037124 0.5539790 0
-0.1534245 0.2556402 0.4211977 0
-1.9785696 -1.5255423 4.1111259 0
0.0803269 0.3242172 0.3079923 0
-0.0149945 0.3171122 0.2481258 0
0.0310919 0.3052531 0.2935469 0
0.0133733 0.3123693 0.2787081 0
0.3840072 0.2372574 0.5033301 0
0.0276668 0.1958591 0.4727216 0
0.0790616 0.3297681 0.2288458 0
3.9810560 -2.9999256 9.3610973 0
8.2677870 -2.4515424 10.2152567 0
-0.2213179 0.1298755 0.6463261 0
0.0496774 0.3051511 0.2596941 0
0.2755230 0.1806663 0.7183421 0
0.1355721 0.3131180 0.2910790 0
-0.2108078 0.1573144 0.7570331 0
-0.3338450 0.1693511 0.5435104 0
0.1494976 0.2927059 0.3906274 0
0.2151050 0.3157544 0.2790557 0
0.0756725 0.3245096 0.3053926 0
0.3520961 0.1435080 0.8077830 0
-0.0173554 0.3051619 0.2835985 0
0.1469516 0.2992186 0.2843470 0
-0.3840512 0.1564296 0.5911822 0
0.1587025 0.2651406 0.3969504 0
0.3310879 0.2668361 0.4160772 0
-0.3976021 0.1150733 0.6051259 0
0.1162373 0.1474627 0.7436029 0
-0.4298635 0.1055331 0.6495461 0
0.4405541 0.0216952 1.2651535 0
0.1765921 -0.6776917 3.7823298 0
-0.3997464 -0.2162431 2.8165035 0
-0.0570449 0.2521449 0.4136899 0
0.1842975 0.2933903 0.3342564 0
-0.0714602 0.3050003 0.3622767 0
-0.3675587 0.1416911 0.5967418 0
0.0710635 0.2917923 0.3031060 0
6.0582666 -3.6369586 9.5945263 0
0.1425408 0.3160026 0.2697629 0
-0.0086988 0.2977596 0.3556722 0
0.2165920 0.2975414 0.3195465 0
-0.0145615 0.3165266 0.2476025 0
-1.8733215 -1.3900396 4.2300239 0
8.2342873 -3.4519589 11.3160458 0
-0.0276082 0.3124966 0.2730318 0
-0.0231092 0.3211377 0.2572049 0
0.1243683 -0.5379227 3.2313704 0
0.0981771 0.3275195 0.2692274 0
0.1250890 0.3233193 0.2446567 0
-0.0650304 0.3191524 0.2377882 0
-0.3413857 0.0979223 0.6686260 0
6.1983681 -3.7783360 9.8300791 0
0.3070505 0.2624315 0.4181368 0
-2.5886259 -1.1884170 3.8891253 0
-1.4662030 -1.3686126 5.1690817 0
-1.7588068 -0.8218567 3.9924428 0
-0.0722730 0.2605723 0.4032528 0
0.2524456 0.2916264 0.3579380 0
7.5764542 -3.1901810 10.4725895 0
-0.3835798 0.1558782 0.5887570 0
-0.3161691 0.2266735 0.4886811 0
-3.3375962 -1.5720000 3.9199166 0
-0.3191242 0.2865159 0.4494258 0
-0.1338722 0.3087411 0.2525853 0
-1.8323368 -1.3435757 4.2452588 0
0.0000344 0.3207297 0.2373959 0
0.3755594 0.2476432 0.4698534 0
9.1055698 -3.2571437 9.9213581 0
0.0995068 0.3309078 0.2945803 0
-0.4387240 0.1225964 0.6459678 0
0.0790965 0.3326674 0.3186421 0
0.0186232 0.2819460 0.3647434 0
-2.4775560 -1.2892148 3.6339471 0
-0.9473869 -0.0671015 3.2459419 0
-0.0675887 0.2618133 0.3733102 0
-0.1080891 0.2576834 0.3965359 0
-0.0402024 0.2928873 0.3412842 0
0.1037063 0.3162501 0.3244892 0
0.1576070 0.3065841 0.3012483 0
-0.0229414 0.3184788 0.2478718 0
0.1731456 0.3187526 0.2523512 0
-0.4228274 0.0834637 0.6540335 0
-2.6812105 -0.9062186 3.7601881 0
0.6386711 -0.8429765 3.8663080 0
0.0771213 0.1999902 0.5837982 0
0.0348179 0.2084805 0.5473132 0
-2.2974479 -1.2258704 3.8175225 0
0.1914360 0.0531838 1.1754248 0
0.2668198 0.1828059 0.6954525 0
-0.3694522 0.2073274 0.5028684 0
0.4248455 -0.9914142 3.5559490 0
0.1088637 0.2699346 0.3901058 0
-0.2131264 0.1552182 0.7641670 0
0.1309198 0.3105951 0.2838451 0
-0.3169155 0.2528529 0.4326481 0
-0.2189388 0.1480829 0.6354598 0
1.1857960 -1.0530840 4.7013016 0
0.2316311 0.1646199 0.6445541 0
8.1670399 -3.2580564 9.7286739 0
-0.4513523 0.0686343 0.6981665 0
-0.2318063 0.2437327 0.5455058 0
-0.1437461 0.2027154 0.7709599 0
-2.0772698 -1.6735454 4.1452832 0
-0.1828519 0.2047731 0.6179452 0
-0.2477801 0.2505601 0.5095862 0
-0.2763136 -0.8439386 2.8741300 0
-1.7436410 -1.5506227 4.3579984 0
-0.3308609 0.1623974 0.5805784 0
-0.0773915 0.2390695 0.4524242 0
-0.2649982 0.2766246 0.4846104 0
-2.4285629 -1.1159698 3.6589711 0
1.9893510 -1.3039855 5.6207681 0
-0.3146301 0.2830626 0.4414897 0
-2.6267979 -0.8843359 3.3712354 0
1.3111429 -0.6693162 4.4331837 0
-1.4735129 -1.5369960 4.6062150 0
2.0412371 -1.2269359 5.3855467 0
-1.8971689 -1.3187063 3.9841897 0
0.2758143 0.1552906 0.7418265 0
-2.3383915 -1.1349481 3.6844425 0
-1.7174951 -1.3112484 4.5582223 0
0.9005713 -0.6297288 4.4387660 0
-1.9213371 -1.3146983 4.1237102 0
-0.6740009 -0.0199228 2.9702024 0
-1.4883815 -1.5497770 4.6181831 0
-0.3518730 0.0911967 0.6939301 0
-0.3926158 0.1473549 0.5847586 0
0.1302217 0.2341140 0.4697414 0
-2.2155766 -1.1928684 3.6863182 0
-1.8224634 -0.8410069 4.1710591 0
1.7508163 -0.9609432 4.3944097 0
-0.8705835 0.0043537 2.9891930 0
10.1422100 -3.1953957 11.0313940 0
7.5335908 -4.3925600 10.7073746 0
9.2576981 -3.7102423 11.1768408 0
-1.5360607 -1.4565829 5.0784760 0
0.1092307 0.1628511 0.6758403 0
0.5097515 0.0949442 1.2536181 0
-2.0360830 -1.3900867 4.0217628 0
3.7288454 -3.8438776 10.3012943 0
-3.1032012 -0.4562181 4.6442447 0
-1.3022405 -0.0651549 3.2592852 0
-3.1250360 0.1583649 4.4251165 0
-3.5340285 -0.4707998 4.5511012 0
0.2588769 0.1109267 0.8179293 0
9.4483070 -3.4095879 10.2802582 0
-0.5894060 -2.4741242 6.4930453 0
-1.6612600 -1.8500984 4.5071483 0
0.9110402 -1.2096668 4.1175780 0
3.6897562 -4.6912799 10.2591925 0
-1.2002238 -2.5922201 4.8698130 0
-1.2473015 -2.5368917 5.3401885 0
-2.1626730 -0.2901843 3.8555562 0
8.3016510 -3.4671304 11.3724232 0
-1.1459277 -0.3609695 3.4583070 0
0.3069126 0.0183942 1.1747773 0
-1.2367934 -2.4601605 5.1702409 0
-3.0518539 -2.3548656 4.8434105 0
-3.1262641 0.1072627 4.7042398 0
-2.2029476 -1.3689612 3.9538918 0
-0.4386899 0.0282285 2.8327816 0
-0.2765892 0.1738133 2.4720747 0
-1.9891520 -1.3508608 4.1015944 0
-1.7909415 -2.2862346 4.3551106 0
0.3016438 0.0179027 1.1618038 0
5.8228388 -3.5767338 9.2556725 0
-1.8841408 -1.7841383 4.1350751 0
5.6389632 -1.6985234 11.0392218 0
0.3043990 0.0158782 1.1721830 0
-1.4688796 -2.2724257 5.7426419 0
1.8681928 -0.8815916 4.5952711 0
-2.8238993 -2.1804976 4.0070496 0
-0.1353150 0.3138570 0.2551596 0
-0.0742260 0.2637642 0.3817514 0
-0.4295829 0.0802867 0.6646381 0
-0.3865989 0.0701451 0.7263280 0
0.1089142 0.2536543 0.4275979 0
-0.0630910 0.2875852 0.3232795 0
0.0655157 -0.6962561 3.3638563 0
0.1573482 0.2649737 0.3972014 0
0.2600916 0.1850477 0.6704639 0
-3.8784859 -0.4925665 4.4563665 0
-0.3439405 -0.3391574 2.7261505 0
-0.3132378 0.2256887 0.4783232 0
9.5911283 -3.8545947 11.2589426 0
-3.0072219 0.1470294 4.1976175 0
0.0526431 -0.3098169 3.7951176 0
-1.3032459 -0.3274193 3.3592041 0
-0.5644494 -0.0226226 2.9914694 0
0.6538426 -0.7759990 3.9918158 0
0.4280717 0.1873923 0.6499774 0
-1.7771639 -1.3304785 4.4563942 0
0.9304238 -0.4969743 4.2030926 0
-1.6556617 -1.8414359 4.5035782 0
5.6512227 -4.7069321 9.9781361 0
-0.0201202 0.2336601 1.7601167 0
4.5669818 -1.0611378 7.8058448 0
0.1105864 0.1776422 0.6590461 0
4.7437105 -4.7310519 12.7193508 0
10.3678389 -2.9299233 11.2345877 0
5.9214983 -1.2319471 9.6187973 0
-1.5396656 -1.8465860 3.5257597 0
-0.6317692 -0.0428653 3.0662444 0
8.7806501 -4.5475140 12.0587177 0
-1.3124288 -2.6284614 5.5379467 0
1.7480303 -0.8285670 4.3297381 0
3.9013767 -4.8342991 10.6061916 0
-1.5882175 -0.1404765 3.4235709 0
-0.3705626 0.2000194 0.4853028 0
-2.9351993 0.1466162 4.1049433 0
8.3249702 -3.4464276 11.3233852 0
1.5365357 -0.7714666 4.8595719 0
-2.7708302 -2.0103788 4.3065605 0
-1.5026124 -2.5022240 4.7001562 0
0.9011315 -3.8170488 7.6932487 0
-0.5439942 -2.2468350 5.8280292 0
-1.8875831 -2.0694129 4.3711600 0
-2.7944920 -1.9067391 3.9349380 0
7.7902727 -3.2849720 10.7296019 0
-2.2419343 -1.4531918 3.8633175 0
-1.2519197 -1.7414637 5.2211838 0
-1.4089608 -2.5217440 5.1794605 0
-1.7055439 -2.0007348 4.7935109 0
-1.0246177 -0.0010490 3.0561361 0
0.4352899 0.1567319 0.7340844 0
-1.3724078 -0.3605659 3.5607629 0
4.9762774 -4.5302649 9.8273230 0
-1.3192743 -0.0669534 3.3836377 0
-2.4100695 -1.4909596 4.3198900 0
-0.4600112 -2.8432059 6.0873923 0
-2.7536433 -1.1870028 3.7463322 0
0.2369415 0.0369060 1.2005931 0
1.4653296 -0.6963035 3.9770043 0
-1.9299381 -1.3015015 4.1373682 0
-0.3245449 0.1483444 2.4471910 0
-1.4113415 0.3308129 3.2634208 0
5.2357984 -4.7820654 10.3583975 0
0.5595900 0.2054480 0.6209652 0
-2.0568697 -2.3359573 4.9977036 0
-3.8260014 -0.2752229 4.6023088 0
6.3546929 -1.5678792 10.2324314 0
-1.7172034 -1.6312159 4.5718865 0
0.0752229 -2.2746315 5.2738833 0
-3.1988111 -2.4558470 4.0568433 0
-2.2702658 -1.6948438 4.1531315 0
5.8974972 -1.4372910 9.5020771 0
-3.7535226 -0.2592760 4.5112977 0
-0.5098038 -0.1601174 2.8757410 0
1.2627959 -1.0506402 4.7077522 0
2.1804800 -3.7837811 9.5900145 0
-0.8095587 0.0469895 2.9745154 0
9.0571327 -2.9085281 11.1553497 0
0.2497077 0.1055931 0.8338619 0
-0.0433422 0.2334847 2.2529173 0
0.2181612 0.1265965 0.8035056 0
-1.0210979 -1.1109474 4.3059516 0
5.5249796 -3.9392300 10.0775900 0
0.3094870 -0.9840535 3.4547219 0
-0.3932267 0.1437368 0.6055748 0
-0.0391058 -0.8456526 4.2450037 0
-3.0626352 -2.4861233 4.7252307 0
9.5244284 -3.8276482 11.1848593 0
8.9742355 -3.6120667 10.5655298 0
0.1373764 -1.3074700 4.0109177 0
-3.0305159 -0.5984107 4.4081988 0
-2.0289979 -1.7408230 4.1195650 0
-2.5782354 0.3140384 3.5144644 0
0.8668860 -1.1657816 3.9465799 0
-0.3618569 0.0979939 0.7044526 0
-0.2276263 0.1933129 1.0038588 0
0.4386132 0.1565449 0.7330283 0
-0.2153632 0.1809987 1.1495186 0
-0.7967393 0.2931940 2.4308722 0
1.1593406 0.0331726 1.4946338 0
-1.1943839 -0.3698945 3.5767465 0
0.2572724 0.1094032 0.8421052 0
-1.1316638 -1.9853544 5.3412652 0
1.3209840 0.1752563 1.4325581 0
-2.3155098 -1.1843963 3.8895366 0
-1.5384145 -0.1434631 3.4554596 0
0.6165119 -0.4773904 3.7346897 0
-0.0926052 0.3146666 1.7893783 0
-0.4254983 -0.3333710 2.5956454 0
0.1122189 0.1445781 0.6917651 0
-1.2358358 -1.8045802 5.1144671 0
-2.0203924 -1.8550565 4.3333673 0
-1.5736282 -0.6216358 3.7580349 0
-0.2430433 0.2713911 0.5264823 0
-2.7001908 -1.0722878 3.5310369 0
-0.0042539 0.2532885 0.7427025 0
0.5869053 -0.4157075 2.9328625 0
-1.5268615 -1.4135642 4.9114389 0
2.1045768 -1.0019258 4.8257413 0
-0.4811383 0.0908197 0.8489990 0
-0.1328156 0.2527847 1.1855178 0
-0.4943404 -0.1582488 2.7339168 0
-0.1859885 -0.7275503 3.1232514 0
-0.3940490 0.0948842 0.6918029 0
2.5012321 -1.3041950 5.4094510 0
0.0505464 0.2287083 0.7916360 0
-0.2667388 0.1770870 0.9330797 0
-1.8155167 -1.2733375 4.1153684 0
-1.3898712 -1.4264835 4.8115807 0
-1.2496655 -1.5016469 5.1300220 0
-0.2335690 -0.0356649 2.9898579 0
0.3535089 -0.6471257 3.4916739 0
-1.7485368 -1.8548040 5.2606649 0
0.7647635 -0.2794076 1.2706341 0
-1.7718654 -1.4684972 4.3460541 0
-1.1560842 -1.6574205 5.0022483 0
1.5502633 -0.9611631 4.7593622 0
0.8758752 -1.2614256 3.9914491 0
-2.4166579 -1.1846853 3.7617209 0
-2.3602779 -1.9222997 4.7032661 0
0.5557693 -0.7710134 3.8029261 0
-0.6276512 -0.0095455 3.0405328 0
-0.1138770 0.1835768 0.9803532 0
-0.2983861 0.1847290 0.5681666 0
0.1329004 0.1509420 0.7660825 0
-2.0517194 -1.6424896 4.1057911 0
-0.4656883 0.0484011 1.0536232 0
-0.2575069 0.2546170 0.4896865 0
-0.0919202 0.2335752 0.7680897 0
0.0583816 -0.1642758 3.2628696 0
-0.3828813 0.0809605 0.8769199 0
-0.0949821 0.3107891 0.2815502 0
-1.1778096 -0.3785031 3.5779574 0
-1.5401300 -0.6066934 3.6710889 0
0.2999295 0.1767184 0.6507365 0
0.3376311 0.1429362 0.7614386 0
-0.3334917 -2.5711813 6.4935794 0
-0.1176190 0.1338266 2.5364571 0
-1.7458525 -0.8007029 3.9760687 0
-0.7581403 -0.3798360 3.1933365 0
1.7808932 -1.0995487 5.4420395 0
-2.1605752 -1.6154875 3.9927411 0
-1.4154891 -2.1511872 5.2418051 0
-2.6194715 -1.4456468 3.8191798 0
-0.6880215 -2.1970303 5.8560028 0
0.2413375 0.1055093 0.8451307 0
-0.7979314 0.0536503 2.8631210 0
0.8962381 -0.9672982 4.4148164 0
-0.4893696 -0.1607068 2.6541157 0
-0.2786185 0.0948654 2.7011971 0
0.1180017 0.1507317 0.7154564 0
5.7746410 -1.2323138 9.3731079 0
-1.6881856 -1.5939312 4.5073552 0
0.5562961 0.2023920 0.6134445 0
1.9835978 -0.9743415 5.0454426 0
-1.7118611 -0.5467636 3.5689323 0
-2.3751667 -1.2368424 3.4828148 0
-0.2025338 0.3047301 0.6035501 0
-0.0823882 0.2796729 0.8120720 0
-1.7361847 -0.4237323 3.7103434 0
-0.0850609 -0.1132977 2.7945023 0
-0.4373710 -0.0525749 2.9490459 0
0.3619537 -0.9901987 3.9823561 0
-1.9358317 -1.4076126 4.0349698 0
4.4820490 -0.6130488 8.0286293 0
-0.3396121 -0.2043030 2.7844250 0
-0.3952362 0.1260770 0.6194018 0
-1.1651386 -2.8707254 5.4220748 0
-0.2959989 -2.4272885 6.1411462 0
-2.4501057 -1.1416441 3.4107294 0
-0.6431282 -0.0051962 2.8652267 0
2.1966975 -1.0148321 4.9299526 0
1.3006545 -1.5773399 5.1148267 0
-1.9681013 -0.6016118 4.9988451 0
2.0664194 -3.5765212 9.1067028 0
-0.4090155 -2.5210414 5.3603196 0
1.0063024 -1.3360314 4.1809645 0
0.6627121 -0.0967989 1.9819360 0
-0.1199535 0.2886605 1.3068695 0
-3.1506026 -2.4213309 4.9960356 0
-0.0863416 0.3103201 1.7547011 0
2.4908428 -1.1379766 5.2465501 0
-2.0894840 -2.2375047 4.7119331 0
-0.5130210 -1.9559915 5.9613457 0
-0.5721022 0.1307014 0.7818651 0
-1.6654649 -0.7731200 3.7973897 0
1.2012752 -0.8023496 4.8178544 0
5.4174552 -1.8518934 10.1375046 0
0.4974188 -3.2521243 6.4646611 0
7.6518192 -3.1686113 12.0523376 0
-0.9686612 -1.2534928 2.2844718 0
-1.4351536 -0.8481481 5.8973384 0
1.2138683 -0.5719337 4.7278767 0
0.0677637 -0.0365572 2.7616553 0
8.8599834 -3.7559292 12.1575470 0
-0.2421747 0.1506387 0.5902913 0
1.3446656 0.1825145 1.4765111 0
1.2477108 -2.9330812 7.8085876 0
-3.4010954 -2.3074510 4.7930679 0
-1.7851446 -1.0938795 6.3070583 0
-1.4024311 0.3310549 3.2296476 0
2.8953879 -0.2915378 5.6762843 0
-3.2327306 -2.5924182 5.1715117 0
-2.1637414 -1.5623931 3.3623924 0
0.8171912 -3.4954474 7.0437117 0
-1.4565083 -0.1086109 3.3641376 0
-2.2212882 -1.7552862 4.2589102 0
1.1624072 -0.5553166 4.5846853 0
-0.3728981 0.1756551 0.5585522 0
5.4622474 -3.5365140 8.4727116 0
1.8132379 -0.9997833 5.0400171 0
-2.1348743 -1.8731629 4.3709149 0
-1.1244853 0.0506153 2.8629222 0
-1.2283298 -2.5683002 5.4099827 0
1.8507507 -3.5171504 8.8749495 0
2.7904303 -1.2959474 5.6347651 0
-2.4239907 -1.4548283 3.8192596 0
0.2632209 0.1794187 0.7046220 0
-1.8859450 -1.8394291 4.2597971 0
-2.0655861 -1.6409445 3.9640388 0
0.4177426 -0.9958735 3.5369372 0
-1.6484907 -0.7603446 3.7399886 0
10.4846478 -3.8003547 11.3732300 0
-2.8598239 -1.6471820 3.7297108 0
-3.5282362 -2.4059286 5.0900607 0
-1.8493382 -2.8417501 5.3559690 0
-1.7374666 -2.0882695 3.9826825 0
-1.9050081 -1.9558816 4.2769828 0
7.1791530 -2.9804931 11.2631311 0
9.9847364 -2.4123974 14.1157484 0
6.8066435 -3.8646572 10.0093565 0
11.7974405 -4.7975268 12.0021544 0
-1.0626590 -2.5032465 5.3090296 0
-2.8949163 -2.0923316 4.0123925 0
2.5494282 -3.9835804 9.8252068 0
-1.3821892 -1.6579845 4.8169041 0
-1.2948554 -2.3561318 5.7339792 0
0.3684369 0.1752275 0.6639575 0
-1.7377917 -0.7887926 3.9534762 0
0.7172379 -0.5492452 4.3431568 0
0.9381351 -0.4400122 3.7250912 0
-0.2084298 0.1715768 1.1022830 0
1.7573339 -3.3732846 8.5239973 0
-0.1288847 0.1051424 2.5709922 0
8.3089991 -4.2889180 11.4192591 0
2.5620620 -1.3395960 5.5273061 0
-2.0714388 -2.2543461 5.2215214 0
3.0022194 -2.5735805 8.1435146 0
-1.9431053 -0.2557880 3.4771039 0
-1.9766881 -0.6732756 4.5645518 0
-1.8976564 -1.5062283 4.8093519 0
-2.2431872 -1.5571291 3.2449703 0
-2.0878944 -2.4256308 5.4959278 0
-0.9946271 -0.0621077 3.3021381 0
-0.3865146 -0.0873426 2.7149127 0
7.1529551 -1.7333962 11.5458679 0
-0.2608354 -0.0341896 2.8648245 0
-2.7113717 -2.7370288 5.1299214 0
-0.6733425 -0.0215279 2.8726554 0
-1.2325720 -2.6510904 4.9910388 0
-1.5063974 -1.6039370 4.7906299 0
8.0237856 -3.1697414 9.5652418 0
5.5391297 -3.8452814 10.2315044 0
9.7429218 -2.3738294 13.8328743 0
9.9615479 -2.0655017 10.6287365 0
7.3493867 -2.8567858 11.7910595 0
7.0811234 -3.0921440 11.7366438 0
5.5443625 -3.8369288 10.1917162 0
0.2238116 0.1352042 0.7445683 0
0.2812477 -0.0447775 1.2295793 0
0.2798612 0.1335511 0.7772400 0
-0.6651423 -0.0230967 2.8840821 0
0.4279994 0.1640329 0.8017771 0
-0.1165738 -0.1610859 2.7464726 0
-0.0970239 -0.0980389 3.0417452 0
-0.0992753 0.1538682 2.3964212 0
-0.1003659 0.3277823 1.8320740 0
0.3098036 0.1304766 0.7878799 0
-0.2788487 -0.3734431 2.8103538 0
0.2523038 0.1118703 0.7578723 0
-0.0863177 0.3096716 1.7512074 0
-0.4802839 0.2910690 1.1515924 0
-0.1425333 0.2165357 0.7294630 0
0.1209523 0.1772034 0.6163476 0
0.0195194 -0.8455517 3.3070636 0
-0.2312963 0.1775217 0.5442182 0
0.4324174 0.1644973 0.7102050 0
-0.2487112 -0.3702046 2.8639522 0
-0.2515497 0.1797848 0.9564740 0
0.0552458 0.2356511 0.8067040 0
0.3465771 -0.0123476 1.2266555 0
-0.2396053 0.1753730 1.1472811 0
-0.1666363 0.2051661 0.9382071 0
-1.8652139 -0.7283584 3.5732133 0
-0.4428796 -1.0493466 3.4399505 0
0.0509510 -0.5904068 3.1158912 0
-0.0024399 0.2817669 1.0039744 0
-0.2646351 0.1725123 0.9071271 0
0.0506194 0.2044613 0.7021649 0
-0.2413208 0.1709967 2.3674605 0
-0.2553850 0.2534254 1.0760138 0
0.2293645 -0.2575857 2.6855936 0
0.5563085 0.1904383 0.6273200 0
-0.4013309 0.1824648 0.5332746 0
0.4511086 0.1720293 0.6740394 0
0.2725329 0.1867071 0.7287832 0
0.8169303 0.1978027 1.1872027 0
0.6419157 -0.4962054 4.1189070 0
-0.1065873 0.2041895 0.9572400 0
-0.3618966 0.0816873 2.7889564 0
0.8571286 0.1309416 1.2975889 0
-0.0955804 0.2545044 1.8415959 0
0.2396402 -0.1226230 2.8406954 0
0.3426988 0.1284723 0.7982476 0
-0.7959536 0.2890925 2.4202700 0
0.0867868 0.1493413 1.7379627 0
-0.3011347 0.1368410 0.5843325 0
-0.3438245 0.1731162 0.9612958 0
-0.3347589 -0.2084885 2.7136245 0
-0.2526879 0.1876521 1.0203137 0
0.5439693 0.1850524 0.6194894 0
-0.3232703 -0.1943119 2.7070491 0
0.8158934 0.2029973 1.1832572 0
0.6441475 -0.0832332 1.8847485 0
-0.2537370 0.1893466 1.0262389 0
-0.3801027 0.1398439 0.5673311 0
-0.0974941 0.2472061 0.7779881 0
-0.2289619 0.1780098 1.1292917 0
-1.9384234 -1.3953762 3.0237978 0
0.1113875 -0.1558776 2.4401488 0
0.4407355 0.1708734 0.7279310 0
-1.5282371 -0.1362466 3.4170067 0
-0.3166998 -0.1893230 2.6756775 0
-0.7927753 0.2889378 2.3378148 0
0.3408668 0.1705919 0.6494300 0
1.2862977 0.1688889 1.4327185 0
-0.2501454 0.2470835 1.0557574 0
0.4693288 0.1666152 0.6956862 0
-0.5850868 -0.0310829 3.0901535 0
0.6253049 -0.0817385 1.8502108 0
1.3072801 0.1747475 1.4373273 0
1.5469249 -0.7469623 4.7709856 0
-2.2749474 -2.2490709 4.4214306 0
-0.0824399 0.2067105 0.8977441 0
0.2205317 0.1963894 0.6506920 0
-1.9719299 -1.1705754 3.9187601 0
3.5316470 -4.8212018 10.7405586 0
3.3542418 -2.6186740 7.9761066 0
0.8784873 0.1299446 1.3171631 0
-0.4752528 -0.1362619 2.6803308 0
4.0443897 -3.1831865 9.4196167 0
8.1154089 -4.1916776 11.1217251 0
8.5579386 -4.3848805 10.8528500 0
8.3150845 -2.7904379 10.0917559 0
-0.0775702 0.2940243 0.3055666 0
-1.7309014 -1.1426473 6.2881107 0
3.9836817 -4.0728550 10.9143467 0
0.3710431 0.1413629 0.7544857 0
-2.4964132 -0.7246682 4.2191753 0
-1.7383858 -0.5601628 3.6164868 0
1.8348645 -1.2567042 5.5576682 0
6.8291478 -3.9191866 10.1259556 0
-0.3332259 -0.3337993 2.6780250 0
-0.0666213 0.2743775 0.3834514 0
-1.4683850 -1.8392674 6.0761161 0
0.2370949 0.0515046 1.1983497 0
-1.9598219 -0.7488667 3.6911745 0
-0.2792290 0.1134523 0.6303494 0
-0.2125748 0.2140617 0.5203559 0
-0.0588166 0.2538183 0.4237373 0
0.3465148 -0.7392809 3.7199924 0
0.0600555 0.2753305 0.3656945 0
-0.0750199 -0.8138133 2.9321725 0
-2.0057108 -1.1935194 3.9793534 0
0.7137265 0.3779031 1.1845223 0
0.4534256 0.2240404 0.5375575 0
0.0174395 0.2428440 0.4492341 0
0.2144936 0.0987129 0.9463390 0
0.0470213 0.2510267 0.4465599 0
0.8446079 -0.8110768 3.7502012 0
-0.0074661 0.2933423 0.3389721 0
-0.2479950 0.2055788 0.5528997 0
0.1208532 -0.7287474 3.6275053 0
-0.2706417 0.2411432 0.5650355 0
-0.0471119 0.2552468 0.4187271 0
-0.0716459 0.2605571 0.3982234 0
-0.1021620 0.2996193 0.2687984 0
0.1000738 0.2552611 0.4210171 0
-0.0161033 0.3024375 0.2778782 0
0.0048948 0.2135489 0.5166911 0
-0.0094505 0.2966238 0.3492852 0
-0.0479944 0.2816148 0.3460268 0
-2.3863013 -1.1537036 3.5056524 0
-0.0440403 0.2424684 0.4448386 0
-0.0241486 0.2941434 0.3686468 0
0.2390065 0.1045732 0.8522195 0
8.2427683 -2.1253159 10.4889936 0
0.2692370 0.1844993 0.7019798 0
-0.0251374 0.2974528 0.3795723 0
-0.1285110 -0.6209018 3.7345982 0
-0.1282044 -0.6454644 3.8260913 0
0.1814448 0.2574024 0.4180740 0
0.1913448 0.2484689 0.4340152 0
0.2094863 -0.1438546 2.7169154 0
0.1523915 0.2668327 0.4106222 0
0.1861735 -0.1326694 2.5915859 0
-0.2586607 0.2289147 0.5450672 0
-0.2868202 0.2497397 0.4482328 0
-0.1125173 0.2744789 0.3454113 0
-0.3298564 0.1940450 0.5948771 0
-0.1693211 0.2282525 0.5756545 0
0.1727572 0.2895430 0.3375146 0
0.2794714 0.1832625 0.7044570 0
0.0569766 0.2626629 0.4641274 0
0.1094004 0.2525224 0.4254563 0
-0.2560833 0.1724818 0.6176550 0
0.0603547 0.2744519 0.3669392 0
-0.0070552 0.2947099 0.3427635 0
-0.2980425 0.3068575 0.4543526 0
0.2138731 0.3153051 0.2783062 0
-0.1806606 0.1824254 1.0276381 0
0.3334105 0.2642615 0.4056264 0
-0.2977133 0.1163598 0.5952301 0
0.3465278 0.2644467 0.4195960 0
-0.1865165 0.2288863 0.6275067 0
0.1525147 0.3113898 0.2808224 0
-0.2841228 0.2489678 0.4420741 0
0.4426885 0.1945684 0.6269550 0
-0.2306986 0.1482287 0.7503794 0
-0.2942303 0.2028237 0.5585776 0
-2.3061056 -1.3486650 3.9785497 0
1.7241031 -0.8292739 4.3153005 0
2.9827516 -2.5900509 8.1583252 0
0.1954919 0.1174668 0.8654485 0
0.2185360 0.2976399 0.3200887 0
0.3022378 0.2640442 0.4147988 0
0.1652190 0.3018219 0.3703459 0
0.2313388 0.3095284 0.3111028 0
2.9833696 -2.5432606 8.0450506 0
-2.4534636 -1.0639497 3.5759764 0
-0.4486469 -0.0504008 2.9097166 0
0.0805550 0.3236663 0.3080163 0
0.1708295 0.1285204 0.7620775 0
-0.0251438 0.2257119 0.4626232 0
-0.2259422 0.2069858 0.5193953 0
-0.2747091 0.2758406 0.4851035 0
-0.3678654 0.1913017 0.5293280 0
-0.2548256 0.2042999 0.5657421 0
0.0367460 0.2089529 0.5464944 0
-0.2793438 0.2996942 0.4272381 0
-0.2666575 0.2383174 0.4690870 0
0.1883501 0.2946899 0.3351163 0
0.2088219 0.3133589 0.2736772 0
-0.2999821 0.1134826 0.5965223 0
0.1856473 0.2935729 0.3320627 0
-0.3125424 0.1149555 0.8171626 0
0.3733782 0.2094929 0.6658047 0
-0.3617795 0.0923544 0.6458157 0
0.1217115 0.1498505 0.7386178 0
-0.3623346 -1.3304538 5.6704664 0
0.1247590 0.3173711 0.2953864 0
0.2631310 0.2572447 0.4337905 0
-0.3313087 0.0848295 0.6306535 0
0.1897988 0.2171267 0.5485867 0
0.1180342 0.3340538 0.2254248 0
0.9584063 -0.9586203 4.3248267 0
1.1885750 -1.0790497 4.7147999 0
-0.4281362 -0.2886202 2.8247275 0
-0.1633115 0.2116305 0.6699777 0
0.0214657 0.3266229 0.2529740 0
-0.0166635 0.3097238 0.3044963 0
0.1378119 0.3119632 0.2402556 0
0.0535959 0.2610728 0.4502058 0
0.2036387 0.3276801 0.2706798 0
-0.1336324 0.2233822 0.6842977 0
0.2731610 0.1760235 0.7285687 0
0.0228729 0.3022390 0.3490692 0
0.0315448 0.3377697 0.2737156 0
-0.2634200 0.2334210 0.5833398 0
0.1293406 0.3258588 0.2509135 0
-0.0204206 0.2778577 0.3643927 0
-0.0766147 0.3216693 0.2282350 0
-0.0851213 0.3335023 0.2500102 0
0.0030564 0.3155415 0.2334080 0
0.0975523 0.2514096 0.4351051 0
0.3802849 0.1354797 0.8623110 0
-0.3594227 0.1357142 0.7538384 0
0.1857169 0.3238118 0.2655244 0
0.0211948 0.2913321 0.3201044 0
-0.1460882 0.3168111 0.2691588 0
0.3394936 0.1462436 0.7739596 0
0.1568787 0.2648161 0.3977382 0
0.0987763 0.2519052 0.4405956 0
-0.1141863 0.3071549 0.2654203 0
0.2845824 0.1569287 0.6509948 0
-0.1848999 0.1367854 0.6424086 0
0.1294277 0.2287323 0.4523013 0
0.1265036 0.3154056 0.2958938 0
0.0698203 0.2629428 0.4388609 0
0.0728516 0.3237029 0.2981630 0
0.3810946 0.1182951 0.9041166 0
0.1326095 0.3226023 0.2544279 0
0.1903667 0.3083783 0.2986384 0
-0.0270862 0.2257592 0.5000680 0
0.0422549 0.2818254 0.3512836 0
-0.3276873 0.0874474 0.6236840 0
0.0778032 0.2941496 0.3199567 0
0.2387203 0.3105641 0.3185090 0
0.1134350 0.3252682 0.2440012 0
-0.1840441 -0.1919656 2.0692968 0
0.2180250 0.2986701 0.3203832 0
-0.4190325 0.1079121 0.6345441 0
-0.2381981 0.1579866 0.9187368 0
-0.0726013 0.2145352 0.7596639 0
-0.0708750 0.2247827 0.5530797 0
0.3070620 0.2806920 0.6316096 0
0.2780727 0.1345383 0.7754934 0
-0.1607799 0.2550803 0.5581047 0
-0.2158032 0.2362856 0.6289431 0
-0.1044166 0.1838987 0.8933019 0
0.1853075 0.3278256 0.2437246 0
-0.1716873 0.2535476 0.5863739 0
-0.2270851 0.2446173 0.5331773 0
0.2741818 0.2819100 0.5032191 0
0.1992843 0.3372646 0.2574609 0
0.1919606 0.3277192 0.2739358 0
0.0554113 0.2613700 0.4560040 0
-0.3332373 0.0923429 0.5617669 0
-0.1608878 0.2501175 0.4518411 0
-0.0632466 0.2153075 0.6056254 0
0.2697733 0.2834865 0.5017267 0
-0.1137420 0.2115116 0.4239807 0
-0.1138305 -0.0530047 2.7119610 0
-1.3425108 -1.5921918 4.8563614 0
-0.3072685 0.2426539 0.4673541 0
-0.0126113 0.3136901 0.2541958 0
0.1578202 0.2589886 0.4186127 0
0.6350847 -2.8339016 7.3021803 0
0.5148793 0.1859100 0.6457475 0
5.4909544 -3.1958613 9.7899237 0
4.1083994 -4.0144567 10.9003000 0
1.5767974 -0.8981375 4.8208876 0
-2.5765209 -1.3617975 3.5698647 0
-0.5678790 -2.6439795 6.2356653 0
4.2245669 -0.8438733 7.5679145 0
-0.4105099 -0.0918763 2.9056594 0
1.5957248 -0.9308255 4.9607944 0
-0.1350992 -0.4264277 3.0252757 0
-0.6340064 -0.3666430 2.7936697 0
-0.3861446 0.2375998 0.4758731 0
-0.2687030 0.2240286 0.5009632 0
-0.6083463 -0.0377882 3.2158129 0
-0.3273689 -0.2861292 3.5137861 0
-0.3805976 0.1551616 0.5849573 0
0.8499707 0.2121789 1.2340293 0
0.5007706 0.2383012 0.5297781 0
-0.4359358 0.1806783 0.5555450 0
-0.2120704 0.1820456 0.8585212 0
-0.2489203 0.1854231 0.5428203 0
-0.2088650 0.1861486 0.8609079 0
0.2950591 -0.8819069 3.3645208 0
-0.1696474 0.1314588 2.9826674 0
0.1019609 -0.0447037 3.0197377 0
-0.3901400 0.1458021 0.5853667 0
0.8257864 0.2046231 1.2013228 0
-0.2178405 0.2160119 0.5288221 0
-1.9675512 0.4031711 3.4807637 0
-1.8978336 0.3774924 3.3672638 0
0.8811392 -0.6040156 4.2364244 0
-0.0560587 -0.0650153 2.4762976 0
-0.0669181 -0.1584849 2.4917603 0
-1.7475719 0.4076594 3.4947410 0
-0.3399452 -0.2099954 2.7826891 0
-0.3981351 0.1890962 0.5573068 0
-2.4407783 0.3916856 3.7108400 0
-0.3343745 0.1631584 0.5859775 0
-0.2624720 0.0601611 2.4155781 0
-1.2870983 -1.5559559 4.5250196 0
0.2962353 -0.5931963 4.4231858 0
-0.8507730 -0.5527292 3.6140215 0
-3.0158682 0.1056733 4.5560675 0
-1.9513580 -2.2260740 4.5026579 0
-1.9643387 0.4031541 3.4880371 0
0.1347010 0.2251452 2.2630556 0
0.1520936 0.2541120 2.4608517 0
-2.0958915 -1.1907421 4.3088627 0
0.7308564 0.1666956 1.0648921 0
-0.5365755 -0.6725953 2.3959527 0
2.0942442 -0.9944744 4.8074255 0
3.3523622 -0.4356593 6.5106359 0
-0.3221105 0.1595288 2.4438288 0
-1.9798858 -0.6095042 5.0328636 0
-1.5258129 -1.5812418 4.4833989 0
0.3168415 -1.0330547 3.5020900 0
2.8539851 -2.6981509 7.8879223 0
-1.3267113 -0.8761920 5.7329988 0
1.0997653 -0.4053160 4.4263945 0
-0.5641744 -2.6195414 6.1832685 0
-1.7395433 0.3962032 3.4549470 0
1.2008432 -1.4863254 4.6695480 0
0.0807534 0.2665548 2.1377308 0
0.9221959 -0.9581581 4.3298359 0
-1.4569184 -2.3269107 5.6125388 0
-1.4709884 -1.5260501 4.3212342 0
0.6480719 -0.0782496 1.9015790 0
-0.0896590 -0.0868816 2.5755312 0
1.3002985 0.2368892 1.1810944 0
-0.4356479 -2.7541974 5.8954382 0
-1.9336787 -0.4683726 4.5570803 0
-1.6147826 -1.8247983 4.2397408 0
-1.3917755 -1.5661016 4.7107763 0
2.9093630 -1.6279980 7.0216622 0
-2.6402516 -1.2243990 3.4052060 0
-0.6616711 -0.0169937 2.9292786 0
-2.0168898 0.4004416 3.6053705 0
-0.7243743 -0.4114251 3.1543548 0
-3.2971268 -2.2684729 4.6009011 0
-0.3235529 0.1574908 2.4450281 0
0.0026633 -2.3535159 5.9745874 0
-1.2525671 0.3891675 2.8215704 0
1.2047869 -0.8282704 4.7415619 0
0.3294269 -0.0428763 1.3551341 0
-3.1993411 -0.4824372 4.8621531 0
0.1376128 0.2142987 2.1800103 0
4.2536702 -0.8710741 7.6247683 0
0.0177369 0.2819575 1.9655844 0
-0.1928971 0.1587220 1.0095121 0
0.2085224 -0.1317613 2.4503033 0
-0.2724643 0.2110361 1.1069040 0
-0.4119635 -0.0993200 2.9194391 0
0.7791019 0.1868507 1.1409457 0
-0.2607787 -0.0509764 2.8886414 0
-1.4386102 -1.9884447 6.0259809 0
-0.1201984 0.0913344 2.4453034 0
0.1446101 0.2695392 2.5458677 0
0.0057673 0.2182998 1.6494601 0
-1.3454417 -2.0459540 4.9406080 0
-2.7163734 -1.4208025 3.7243013 0
-1.3045694 -2.3356979 4.7715998 0
-1.8598875 -0.6915864 3.4901693 0
-2.3162527 -1.7280418 4.2535501 0
-1.4551944 -0.1070546 3.4062312 0
-1.2979370 -2.6251662 5.5172362 0
1.6718987 -1.0205691 4.6748643 0
1.0422950 -0.5709280 4.7796278 0
-2.6715205 -0.3422079 4.2989707 0
0.0994501 -1.8491522 3.9839327 0
-0.2761392 -0.3699496 2.7701817 0
1.6407655 -4.1223426 8.6552896 0
4.3104582 -0.5500433 8.2856083 0
-1.1019007 -1.7404062 5.3250036 0
3.3559926 -2.7211199 8.6254559 0
0.4025269 -0.9296978 3.2609906 0
1.1639377 -3.4693251 8.4956417 0
-2.7394173 -0.9190518 3.8341796 0
6.6803794 -0.6321787 9.0172024 0
0.3321410 -0.7284408 3.7211807 0
6.4887676 -0.6210963 8.6515188 0
2.3434527 -4.7983332 9.6959505 0
3.1267209 -3.9403958 8.6416779 0
3.7375038 -3.7645073 10.0834646 0
2.4569170 -1.2777314 5.2392673 0
4.3585086 -0.6508730 7.8281636 0
9.3842506 -2.1016331 10.4655542 0
9.2657461 -1.9791082 12.8679514 0
9.8135529 -2.3336575 9.8811646 0
8.7175570 -4.5319557 12.0242844 0
10.5623760 -4.8438797 12.1937313 0
9.5868187 -4.0862651 13.2116070 0
6.4268651 -4.4075875 10.4013071 0
4.1907845 -5.0927544 11.3659086 0
6.4191771 -4.4050312 10.4749708 0
11.0154285 -4.6922450 10.9127388 0
11.6946669 -4.9478836 11.5425768 0
11.7013807 -4.9423671 11.5868654 0
-2.3067458 0.2742810 3.7716429 0
-1.9602062 -1.3286760 4.0476022 0
0.3745353 0.2086357 0.6041752 0
-2.8268297 -1.6169469 4.9272027 0
0.5156782 0.1859634 0.6462448 0
-0.8191201 0.0516743 2.9427516 0
-2.7739673 0.2487383 4.4492898 0
1.1490111 -0.4418888 4.5496769 0
-0.4469388 0.0347578 2.9320619 0
-1.2977090 -2.1167703 5.2350159 0
0.9739124 -0.9747893 4.4227505 0
1.4302163 0.2565467 1.5198294 0
0.1092484 0.1755839 0.6555692 0
0.0008009 0.2303761 0.8054368 0
0.5631021 0.1941475 0.6422751 0
0.4826292 0.2407435 0.5288933 0
0.0952971 0.1982928 0.5809883 0
-1.1670436 -0.3705513 3.5440111 0
-0.1012281 0.1402012 2.4704013 0
0.2319970 0.1366164 0.7646040 0
0.0075675 -1.5560699 4.9253888 0
0.0817524 -1.8533934 4.2607026 0
-1.8192064 0.4035616 3.5800602 0
0.0492098 0.2012591 0.6810768 0
0.1225715 -1.5378881 4.0256996 0
0.2325029 0.1354545 0.7640937 0
-1.4733646 -0.2973044 3.6618581 0
-0.1191410 0.1082748 2.5405142 0
0.6197885 0.2380055 0.6780371 0
1.1666908 -1.3798360 4.5663233 0
-0.2167525 0.0213217 2.9348514 0
-0.2934009 0.0881492 2.8236070 0
0.5496994 -1.0777442 4.6878796 0
0.2971081 0.2444254 0.4774939 0
-1.1744156 -0.3707921 3.5449171 0
0.0998439 0.2240927 0.5105284 0
-0.2480708 0.1663271 0.5910480 0
0.1587798 0.2493346 0.4406796 0
-0.3410463 0.2052958 0.4943672 0
0.4515224 -1.0376813 3.6606579 0
-0.1256906 0.1914847 0.9530612 0
0.3268474 0.2316572 0.4995145 0
-0.2618482 -0.0523587 2.9948514 0
-1.5533085 -0.7109143 3.5417221 0
-2.3977664 -1.2961291 3.7414222 0
0.3164077 0.2330568 0.5178044 0
0.1823393 0.2295968 0.5079119 0
0.3664418 0.2632895 0.4249262 0
0.2349044 0.1634279 0.6809980 0
-1.6553060 -0.7763094 3.8364999 0
-0.3759771 0.1337133 0.6049923 0
0.0050554 0.1594772 1.7210915 0
-0.2314584 0.1807996 1.0071605 0
0.5525626 0.2264049 0.5842273 0
0.8496583 0.1124003 1.5002952 0
0.1495135 0.1816809 0.6279868 0
-0.1581892 0.2062600 0.6669523 0
-1.3614663 -1.6357992 4.9153371 0
-0.9007033 -0.3026163 3.0459921 0
-0.2142182 0.1902813 1.1221094 0
0.5908051 0.2125634 0.6097171 0
-0.1872120 -0.3241107 2.8590782 0
-2.2327592 -0.8386805 4.1888499 0
-0.4773904 0.0574492 0.7697917 0
-0.3643471 0.0787533 0.6798038 0
-0.3642125 0.2032818 0.4970903 0
0.3971263 0.1463026 0.7410582 0
-0.2009539 0.2279448 0.5504143 0
-0.4924322 0.0565825 0.7929081 0
-0.2428131 0.2167237 0.5547361 0
0.1673866 0.2623507 0.4034097 0
-0.3785923 0.2070942 0.4950959 0
0.0225870 0.1804516 2.2881539 0
0.0223842 0.1652966 1.8542507 0
-0.2909112 0.2674386 0.4299425 0
-0.0283516 0.2373042 0.4612748 0
0.0700704 0.2615199 0.4222898 0
1.3213433 0.1773824 1.4205625 0
-0.2485395 0.2296654 0.5424941 0
-0.3667014 0.1405921 0.6032843 0
0.3940851 0.1420560 0.8129545 0
0.1972681 0.2484728 0.4482487 0
-0.1704252 0.2132329 0.6420981 0
-0.2547123 0.2677352 0.4594616 0
0.4025483 0.1504298 0.6857706 0
0.4795342 0.1719264 0.7061502 0
0.2262219 0.2162818 0.5099670 0
0.1286551 0.2331475 0.4662701 0
0.5684631 0.1960224 0.6395808 0
0.2775207 0.3073425 0.3067254 0
-0.0672276 0.2444161 0.4310296 0
-0.2402323 0.3050791 0.4680621 0
0.0707688 0.2605097 0.4350931 0
-0.0015810 0.2945068 0.3449247 0
-0.1774162 0.2832643 0.5267498 0
-0.2728941 0.3275221 0.4337078 0
-0.2333091 0.2840431 0.4834282 0
0.1360804 0.2592181 0.4239699 0
-0.2050190 0.1185993 1.7035909 0
-0.0032382 0.2947114 0.3482059 0
0.1737548 0.2971206 0.3600646 0
-0.2663070 0.1381800 0.6118304 0
0.2422165 0.2478658 0.4364615 0
0.8345672 0.1238850 1.2516477 0
2.1719432 -1.0439569 4.8221188 0
-0.0626906 0.2985602 0.3181714 0
-0.0032450 -0.5124513 3.4997225 0
0.2526537 0.2984042 0.3268023 0
-0.2748601 -0.3710572 2.8008349 0
-0.3121111 -0.2343463 2.5431259 0
-0.0709540 0.2603698 0.3971090 0
0.0156911 0.2676097 0.3330542 0
0.2492485 0.2967213 0.3220691 0
0.2337962 0.2393519 0.4639465 0
0.2788422 0.3084943 0.3079228 0
0.0040555 0.2254495 0.4997288 0
-0.3560064 0.1059142 0.7320175 0
0.1151802 0.2876524 0.3480370 0
-0.0338959 0.2576906 0.3604246 0
-0.2418565 0.2898019 0.4971885 0
-0.3058145 0.2944138 0.4381848 0
-0.0847308 0.2858615 0.3255703 0
-0.0888380 0.2695711 0.3679842 0
-0.1085241 0.2538167 0.3593605 0
-0.0638210 0.2530748 0.4178016 0
-0.2540067 0.3111351 0.4275120 0
-0.2984827 0.2115036 0.5290013 0
-0.1956035 0.2631428 0.5084203 0
-0.2399275 0.2993090 0.4016433 0
-0.0503894 0.2729723 0.4564277 0
-0.3654354 0.0762503 0.7099096 0
-0.1804986 0.1411227 0.6314661 0
-0.2037407 0.2696149 0.5298401 0
-0.0354515 0.2621235 0.3692113 0
-0.0442380 0.2418560 0.4437639 0
-0.2572941 0.1383422 0.5915474 0
-0.2040261 0.1812082 0.5561422 0
-0.1642365 0.2935802 0.5644420 0
-0.3360601 0.3169684 0.4127443 0
-0.1880180 0.1382090 0.6321685 0
0.2513667 0.2990781 0.3239987 0
-0.1107900 0.2721042 0.3391107 0
-0.2390663 0.3040244 0.4637078 0
-0.3024326 0.3275785 0.3883360 0
-0.2232790 0.1254270 0.6418364 0
-0.2062476 0.2337207 0.5482644 0
-0.2695826 0.2405116 0.5450512 0
-0.4450046 0.1423510 0.6770136 0
-0.0754586 0.2656415 0.3845448 0
-0.3086764 0.3338054 0.3965953 0
-0.0914842 0.2347066 0.5120592 0
-0.2593493 0.2933660 0.4252745 0
-0.3062241 0.2718424 0.4484831 0
0.5826616 0.2006980 0.5852233 0
-0.3056874 0.2731161 0.4489039 0
0.3432458 0.1301163 0.8031834 0
-0.2066724 0.2308684 0.5638843 0
-0.2346089 0.1726955 0.8784395 0
-0.4762935 0.2611732 0.8998088 0
-0.2536452 0.1689924 0.9239751 0
0.2822487 0.1695041 0.5776392 0
-0.2172508 0.1857987 0.5967937 0
-0.1900008 0.2865633 0.5436665 0
0.2633863 0.1497316 0.7060090 0
-0.3625333 0.1743515 0.5898735 0
-0.2834958 0.2285967 0.5205883 0
-0.3157705 0.1738255 0.5764225 0
-0.1601769 0.2617499 0.5640872 0
-0.3351460 0.3518697 0.4302414 0
-0.2012891 0.2070387 0.5698954 0
-0.0011045 0.2350532 0.7783635 0
-0.1607232 0.2629612 0.5682859 0
-0.3434576 0.2416939 0.4232874 0
-0.4300022 0.0069790 2.7898576 0
0.2466490 0.2938061 0.3177677 0
0.0689844 0.2334895 0.4777185 0
-1.2445430 -0.3317056 3.2348564 0
0.1182766 0.3108734 0.2816961 0
0.1332020 0.2034227 0.5681483 0
0.3356656 0.2413816 0.4897943 0
0.2336966 0.1628178 0.6784313 0
-0.1767472 0.1951803 1.0258660 0
0.0336057 0.2097810 0.5425721 0
-0.3740986 0.1344980 0.6029022 0
0.1156972 0.3097887 0.2788576 0
0.1718481 -0.0332073 2.7639318 0
-0.1773081 0.1964359 0.5958686 0
-0.2414122 0.2717857 0.5062544 0
0.2733546 0.2193254 0.5319589 0
-0.3045049 0.2006590 0.5240512 0
0.2141287 0.1625391 0.6937453 0
-0.0153461 0.2962680 0.3050276 0
-0.5621830 -0.0324957 3.0161114 0
0.0201393 0.2919030 0.3161437 0
0.4320109 0.1925194 0.6136099 0
-0.3019975 0.1341858 0.5847286 0
-0.2717612 0.2385245 0.4758846 0
0.1044525 0.2657103 0.3787293 0
-0.1374197 0.3913647 0.3453647 0
0.1535614 0.3054858 0.2950602 0
-0.0930632 0.2386545 0.7423654 0
0.1169269 0.3109530 0.2805888 0
0.0719320 0.3248386 0.2972514 0
0.0303895 0.3146780 0.2405576 0
0.3015053 0.2762119 0.3873123 0
-0.0117918 0.3114313 0.2518062 0
-0.3967166 -0.2180543 2.8015780 0
-0.0023883 0.2783181 0.3912432 0
0.0034985 0.3199563 0.2421419 0
0.2719827 0.3253352 0.2827017 0
0.5945994 0.2044270 0.5920000 0
0.1008994 0.3324224 0.2784735 0
0.2762826 0.3282848 0.2883136 0
0.2250444 0.1841581 0.6109917 0
0.3426279 0.2375435 0.5584843 0
0.3575595 0.2273190 0.5399953 0
0.0531069 0.3098610 0.2717778 0
0.5146233 0.2412747 0.4927902 0
0.2882675 0.0958313 1.0187237 0
-0.2072841 0.2308825 0.5627021 0
0.4022876 0.3216643 0.2740019 0
1.2575026 0.1617097 1.5115517 0
-0.0424055 0.2393688 0.8405311 0
-0.1523205 0.2796525 0.5239663 0
0.2776685 0.2620953 0.4179475 0
0.1703639 0.2639098 0.4082579 0
-0.1797091 0.2305972 0.6022888 0
-0.1530882 0.2926742 0.3007764 0
0.2006191 0.3333566 0.2469396 0
-0.2328753 0.3107899 0.4244997 0
-0.0959803 0.2388932 0.6329992 0
-0.0990298 0.2099309 0.8410664 0
0.1754241 0.2519981 0.4340647 0
-0.3706662 0.3341673 0.4049986 0
-0.1202505 0.2592638 0.6605788 0
-0.4828388 0.0581543 0.7765223 0
0.5216698 0.2432517 0.4987161 0
0.0198061 0.2818794 0.3635707 0
0.1303079 0.3222595 0.2491819 0
0.3639205 0.1755746 0.6504005 0
-0.2969735 0.2115723 0.5279892 0
0.9625472 0.1294848 1.4494356 0
0.1918764 0.3345871 0.2368725 0
0.2514934 0.2986380 0.3246444 0
0.1901308 0.2971140 0.3374830 0
0.0568813 0.2609298 0.4578517 0
-0.3930277 0.0649770 2.9218185 0
0.4693782 0.1666724 0.6956440 0
0.2751135 0.1784768 0.6693549 0
-0.3289964 0.2534333 0.4263363 0
0.3142287 0.1316318 0.7974765 0
0.0710173 0.2609709 0.4200752 0
-0.2618774 0.2198038 0.5558534 0
0.3447048 0.3523062 0.2377263 0
0.3485152 0.2645068 0.4219082 0
-0.3508858 0.2605086 0.4526492 0
0.0310625 0.2093235 0.5378758 0
0.1538270 0.3063954 0.2965876 0
-0.3014770 0.2903915 0.4302491 0
0.0254082 0.1607427 1.7883986 0
-0.0987841 0.2763300 0.3299958 0
0.4065882 0.1476099 0.7601637 0
-0.1716691 0.2435009 0.2304460 0
0.3782790 0.1518414 0.8225930 0
-0.0032911 0.1746567 1.4387654 0
-0.2396242 0.2048285 0.5741799 0
-0.4074798 0.1733369 0.5592344 0
0.1264262 0.2451698 0.4484962 0
-0.3726639 0.2255167 0.4987750 0
0.3287439 0.3408396 0.2255007 0
-0.2394499 0.2692716 0.5006642 0
0.2752258 0.2606622 0.4139047 0
0.5726821 0.2667738 0.4460478 0
0.0433712 0.2843480 0.3421539 0
-0.3038819 0.0774818 2.8417048 0
-0.3870794 0.1803920 0.5762344 0
-0.2484280 0.3065751 0.4456199 0
-0.3646882 0.0006609 2.8212645 0
0.2525949 0.3410577 0.2360481 0
0.1916248 0.0509334 1.1924995 0
0.3019283 0.2531299 0.4594232 0
0.0171555 0.2450660 0.4435229 0
0.0125500 0.2103993 0.5376762 0
0.3261602 0.2331807 0.4994971 0
-0.0748478 0.2559308 0.3911328 0
-0.2261354 0.1240391 0.6503133 0
-0.2104301 0.2334866 0.5743609 0
-0.2892866 0.2181302 0.4735408 0
0.6440434 0.2128705 0.6449344 0
0.1865480 0.3346875 0.2484264 0
0.0064930 0.2236878 0.5047574 0
0.3324808 0.3433124 0.2280994 0
0.0981422 0.3303114 0.2774361 0
0.5980074 0.2053424 0.5986032 0
0.2982225 0.2509712 0.4548338 0
-0.3405780 0.1982157 0.4858934 0
-0.0038140 0.2944137 0.3476917 0
0.0954189 0.3162549 0.3241498 0
0.1057690 0.2838796 0.3389519 0
-0.0616872 0.2832049 0.3123755 0
0.0597313 0.2747858 0.3639101 0
-0.2984018 0.1847487 0.5688645 0
-0.3415349 0.2373670 0.4445610 0
-0.2887945 0.3325592 0.4154066 0
0.2159790 0.2954245 0.3161356 0
-0.0776860 0.3532025 0.2969685 0
0.0984984 0.3246667 0.2699171 0
-0.1680329 0.2233120 0.5701030 0
0.1195686 0.3056761 0.2773046 0
0.0155202 0.1553653 1.5768787 0
0.7965573 0.0498505 1.0197417 0
-0.3321387 0.1635506 0.5754896 0
-0.2756571 0.2677960 0.4653710 0
0.2461658 0.2762123 0.5193021 0
0.4283108 0.1680450 0.7074221 0
0.0138308 0.2933034 0.3068224 0
0.2171139 0.3004333 0.2959512 0
0.0739289 0.2933369 0.3152829 0
-0.0075520 0.2941920 0.3479004 0
0.2596118 0.2609188 0.4637935 0
0.1517514 0.2874523 0.3845496 0
-0.2661924 0.1396144 0.6105053 0
0.5428508 0.1881393 0.6190260 0
-0.0734309 0.2360805 0.4439657 0
-0.2115813 0.2902540 0.5240604 0
-0.6187735 0.0896066 0.9427835 0
-0.0228899 0.2740874 0.3611049 0
0.0202085 0.2921970 0.3168370 0
0.0712418 0.2622365 0.4225877 0
-0.0021422 0.2417966 0.8214686 0
0.1818869 0.3216997 0.2622757 0
-0.2970946 0.1345941 0.5732080 0
0.2568727 0.2770681 0.4037945 0
-0.1721558 0.3104953 0.2186856 0
0.1840035 0.2941300 0.3414108 0
-0.1708038 0.2584367 0.5923223 0
-0.2354631 0.3015840 0.2432407 0
-0.2245968 0.2935756 0.4714022 0
-0.3670321 0.1519698 0.5783154 0
-0.2781584 0.3128672 0.4387930 0
-0.2877232 0.2970777 0.4240722 0
0.2386532 0.3388824 0.2398425 0
-0.1538731 0.3193957 0.2209350 0
-0.4840109 0.0580615 0.7806271 0
-0.3159482 0.2247123 0.4788291 0
0.1907263 0.3205836 0.2563791 0
-0.0675410 0.2326729 0.4653487 0
-0.4101780 0.1464586 0.6106989 0
-0.2403806 0.3015427 0.4494815 0
0.0178576 0.2457103 0.4469070 0
-0.1169725 0.2569905 0.6498511 0
-0.3486262 0.1119449 0.7676038 0
-0.3216923 0.3011517 0.4112751 0
-0.3080971 0.3338161 0.3957669 0
-0.3440377 0.3227996 0.4211512 0
-0.1082211 0.2614278 0.6257879 0
0.2135247 0.2348440 0.4890928 0
-0.0979782 0.1876042 0.9076433 0
-0.0947679 0.2969789 0.2923674 0
0.3037767 0.3355531 0.2696387 0
-0.1240717 0.2796123 0.7007334 0
-0.0390165 0.2370139 0.4360828 0
0.2380412 0.3401754 0.2409359 0
-0.3485518 0.1110306 0.7654212 0
-0.2335727 0.2964984 0.4383295 0
-0.3403752 0.2246894 0.4846431 0
-0.2157474 0.2798994 0.4969609 0
-0.2637473 0.2974776 0.4312555 0
0.0952655 0.3264490 0.2732157 0
0.1420602 0.3158135 0.2696972 0
0.0145051 0.2458674 0.4463605 0
-0.1887693 0.1548212 0.7091564 0
-0.3606294 0.1116051 0.7984759 0
0.3048904 0.3367510 0.2744309 0
0.0721064 0.3226256 0.2951476 0
0.1422568 0.3176438 0.2734905 0
0.1321944 0.2320957 0.4781440 0
-0.2461673 0.1836976 1.0572739 0
0.1882389 0.2348782 0.5296378 0
-0.0390745 0.3053369 0.2668242 0
-0.3720039 0.2438693 0.4516451 0
-0.1826572 0.2404049 0.5408005 0
-0.2342260 0.2142414 0.5378894 0
-0.3857085 0.1964656 0.5068775 0
-0.2122501 0.1841536 0.5745387 0
-0.0418328 0.2828738 0.3546782 0
0.2067362 0.3148377 0.2767603 0
-0.1742726 0.3127650 0.2212099 0
-0.1391229 0.2790272 0.5748701 0
-0.2939679 0.2219104 0.4831399 0
0.1551155 0.3071902 0.2974198 0
-0.2170275 0.2777586 0.4946011 0
-0.3617933 0.1424254 0.5958105 0
0.2246351 0.3071687 0.3054141 0
-0.0767557 0.2961513 0.3373784 0
-0.1279222 0.2638831 0.5442166 0
-0.1521238 0.2520075 0.5824143 0
-0.2868494 0.2189101 0.4725597 0
0.1130110 0.2741399 0.3395568 0
-0.1689445 0.2136049 0.6409708 0
-0.1117134 0.1823546 0.9710944 0
-0.2129406 0.1737976 1.0874759 0
-0.2601092 0.2515145 0.4977563 0
-0.3433184 0.1528010 0.5871092 0
-0.3326235 0.0892972 0.5875136 0
0.5428304 0.1918674 0.6120166 0
0.2772268 0.3266462 0.2874684 0
0.2233855 0.3253528 0.2517443 0
-0.1927237 0.2888249 0.4933247 0
0.2229232 0.3057348 0.3031179 0
0.3360329 0.3476630 0.2310422 0
0.1804817 0.3222033 0.2628959 0
-0.0409736 0.3066078 0.2744825 0
-0.1134301 0.1857860 0.9664772 0
-0.2566946 0.1877350 1.0965099 0
0.2106911 0.2278963 0.6203846 0
-0.4507831 0.0616187 0.7299664 0
-0.1959728 0.1961687 0.5861988 0
0.0430585 0.2835000 0.3393426 0
0.2681613 0.2981459 0.3223276 0
-0.0314197 0.2322854 0.4742671 0
-0.1704181 0.2420702 0.2292846 0
0.2860707 0.1074965 0.9808121 0
1.4236566 0.1822173 1.5758030 0
0.4311056 0.2443910 0.4781788 0
0.2698720 0.1831004 0.7068027 0
-0.1671679 0.2121123 0.6320342 0
-0.1989027 0.2093311 0.5675829 0
-0.2051366 0.2687637 0.5428476 0
0.3365080 0.2405328 0.4877010 0
0.2627932 -0.0264493 3.2043097 0
-0.0083949 0.1760263 1.6143236 0
0.5165280 0.2054066 0.5989919 0
-0.3463663 0.2057762 0.5009677 0
0.1896357 0.2365307 0.4868108 0
0.3368799 0.2416587 0.4890191 0
0.2832891 0.1420581 0.7468252 0
-0.6265605 -0.0089795 3.0304995 0
-0.1354303 0.1195692 2.7907805 0
-0.5930097 -0.2176601 3.2293127 0
-0.3341587 0.3068757 1.1505337 0
0.3712334 0.1611004 0.7189335 0
0.5714567 0.2659048 0.4451658 0
0.8604100 0.1288122 1.2954555 0
0.0616922 -0.1811338 3.3746102 0
1.4459745 0.0871719 1.3213146 0
0.2332305 0.1363975 0.7653785 0
0.3713026 0.3079419 0.3123432 0
-0.2166485 0.2793958 0.4966779 0
0.3321137 0.2273168 0.5667049 0
-0.2247302 0.2913293 0.4695511 0
-1.3264754 -0.0715614 3.3333356 0
0.3088970 0.2310073 0.5044742 0
0.1618534 0.2456246 0.4404477 0
-0.0453281 0.2577613 0.9306101 0
-0.0750369 0.2375927 0.4440701 0
0.3681977 0.3507052 0.2064092 0
0.2651867 0.3335026 0.2687047 0
0.1065206 0.2695447 0.3901497 0
-0.0420489 0.2493467 0.4073200 0
1.4915686 0.0887569 1.3631127 0
-0.0444443 0.3018026 0.3462566 0
-0.1057133 -0.1278697 3.1403425 0
0.3468906 0.3108927 0.3050465 0
0.1987720 0.3173947 0.2705702 0
0.2740517 0.1789191 0.6720774 0
-0.2622547 0.2626381 0.4444688 0
0.2809944 0.2646146 0.4414131 0
-0.1934856 0.2586291 0.4108335 0
-0.0688977 0.2343401 0.4640271 0
0.4268528 0.1849108 0.6463087 0
0.4384919 0.1968301 0.6239659 0
-0.1364373 0.2548575 0.5005674 0
0.5032240 0.2082033 0.5625928 0
-0.3289047 -0.1500200 2.7942421 0
0.3784572 0.2408569 0.4860097 0
0.1071731 0.2168095 0.5370113 0
-0.0586739 0.2507722 0.4184339 0
-0.1190182 0.3016595 0.2462975 0
-0.1609538 0.2082679 0.7429165 0
-0.1673052 0.2151769 0.6399378 0
0.1977640 0.2873079 0.3466075 0
-0.2740254 0.3046652 0.4460889 0
-0.1977701 0.2011021 0.5961023 0
-0.0582882 0.2502201 0.4134362 0
-0.1344452 0.3071261 0.2513374 0
-0.0470311 0.2542325 0.4156623 0
0.1747618 0.2529042 0.4371738 0
0.0962545 0.1986093 0.5803151 0
0.1020432 0.2549753 0.4239106 0
0.2406985 0.2169192 0.5495070 0
0.3828086 0.1374931 0.7767791 0
0.4627212 0.2981490 0.3304834 0
0.3706939 0.2495679 0.4866553 0
0.6367676 0.2271632 0.5218614 0
0.1216489 0.3078825 0.2949882 0
0.3083878 0.2871936 0.3625641 0
0.6204675 0.2170395 0.5627833 0
0.1029335 0.3083198 0.2423454 0
1.3109249 0.0609405 1.4008887 0
0.4405317 0.1566180 0.7365088 0
0.7650676 0.2583795 0.4612159 0
0.1746159 0.2554030 0.4360375 0
0.5859233 0.2415977 0.4944139 0
0.0832618 0.2457149 0.4025375 0
0.3688180 0.3101292 0.2947107 0
-0.6170364 -0.0160585 2.8163860 0
0.1813686 0.2324713 0.5003216 0
0.9177854 0.1497226 1.2847073 0
0.7260290 0.2755685 0.4123462 0
0.1747290 0.2543193 0.4338159 0
-1.5035496 -0.3952192 3.8643055 0
0.4531581 0.3009171 0.3396837 0
0.5749788 0.2646115 0.4514092 0
0.1822594 0.3207701 0.2600557 0
0.5694590 0.2852984 0.3707040 0
0.0968904 0.3185055 0.2532035 0
0.5935313 0.3206294 0.2796207 0
0.6163309 0.2917496 0.3508330 0
0.1750897 0.2545505 0.4346218 0
0.6841544 0.0762095 1.3345473 0
0.5051324 0.2446409 0.5023472 0
0.4091703 0.3222061 0.2649057 0
-0.2557191 0.2000341 1.0853566 0
0.0744017 0.2957518 0.3193188 0
1.2812878 0.0623493 1.3613924 0
0.0995739 0.3235866 0.2814980 0
0.6455507 0.2307653 0.5353245 0
0.4514310 0.2988979 0.3364650 0
0.7209241 0.2731019 0.4050854 0
0.2779900 0.2631280 0.4200468 0
0.3039601 0.3350216 0.2681330 0
0.3965519 0.2523319 0.4669713 0
0.0797706 0.2109950 0.5458568 0
0.5713629 0.2616809 0.4477805 0
0.0054779 0.2975320 0.3025966 0
0.5177111 0.2419065 0.4960391 0
0.6489144 0.2905550 0.3705878 0
0.3795015 0.1374523 0.7678121 0
0.6506093 0.3108843 0.3166650 0
0.7678595 0.2601014 0.4655457 0
0.3439048 0.1272409 0.8006991 0
1.2912518 0.1743598 1.3910191 0
0.5991500 0.3188381 0.2873221 0
0.1161909 0.2483638 0.4497217 0
0.6101871 0.2720327 0.4601932 0
0.6526130 0.3119471 0.3201818 0
0.5116872 0.2462132 0.5104432 0
0.6222636 0.2951974 0.3569585 0
0.5547118 0.3091505 0.3023173 0
-0.6317993 -0.2948430 3.4145317 0
0.3970411 0.1430223 0.7267314 0
