# .PCD v.7 - Point Cloud Data file format
VERSION .7
FIELDS x y z rgb
SIZE 4 4 4 4
TYPE F F F F
COUNT 1 1 1 1
WIDTH 1366
HEIGHT 1
VIEWPOINT 0 0 0 1 0 0 0
POINTS 1366
DATA ascii
9.4456549 -2.1301069 21.6983147 0
14.1902761 -2.8282950 14.4714203 0
14.1114588 -4.9530482 14.5487528 0
11.9203482 -3.3917761 15.8686628 0
13.6916246 -4.8361626 14.6447554 0
13.8478775 -2.0418363 15.2638054 0
12.9887686 -4.7956448 15.2942095 0
14.6250267 -4.9423604 13.8743744 0
14.4616594 -4.0724039 14.2427111 0
9.4829340 -4.1688018 16.0008545 0
10.0649776 -3.6970389 23.1088371 0
12.7745113 -6.6867075 16.3417091 0
13.1211061 -2.1450236 16.9359665 0
10.9102316 -1.3059640 25.0329247 0
12.7134047 -6.5956850 18.5753345 0
13.3395023 -0.8677556 24.4651394 0
14.3466187 -4.9205542 14.3576002 0
12.9093933 -5.2217484 21.9616776 0
12.9076099 -6.3525305 25.9403648 0
13.1655188 -2.3226225 24.1204567 0
13.5839834 -2.1626794 15.5128450 0
12.9679832 -3.9795408 19.3017521 0
13.2570000 -4.6563644 15.1040640 0
7.8463612 -3.1852009 19.0312176 0
11.0024366 -6.9071655 16.5892563 0
12.6740427 -6.8250232 18.8333187 0
13.8787222 -4.3093729 14.5336494 0
12.0011034 -5.2420850 13.5813141 0
9.4076242 -4.0056286 16.0452137 0
13.2839308 -2.0219388 17.1607208 0
12.4489088 -6.9935918 24.5648403 0
14.6965752 -1.5922612 14.9382429 0
15.3436079 -2.1636481 23.0625057 0
14.3140411 -4.2461238 14.0044012 0
14.9356441 -4.6382833 14.1304283 0
12.8127041 -5.7014132 14.8096762 0
8.0949421 -3.7941694 20.1629086 0
12.3477020 -6.8076329 16.2160664 0
11.7104330 -5.7512021 21.2371750 0
7.8860812 -3.5793247 20.8819046 0
14.4109898 -3.5391250 14.2065783 0
14.2306919 -5.0680161 14.0530005 0
11.0219336 -6.9550948 16.6505604 0
9.8018379 -3.5889473 21.8381538 0
14.0977097 -1.9007750 15.4372644 0
14.4677162 -3.1783071 14.4843855 0
13.0555830 -2.2058115 16.8636856 0
13.9419413 -4.8443623 14.7965679 0
14.5246935 -4.8302474 14.2046185 0
14.5360308 -4.0207629 14.1475687 0
12.9443760 -2.8700283 16.2958088 0
13.3213968 -2.5790324 17.2315350 0
13.4005003 -3.0268502 17.1421986 0
9.5802250 -4.6891146 24.6341171 0
14.5660467 -1.6633613 14.8672571 0
12.2823725 -2.7997062 17.4267254 0
11.6077967 -3.6358218 15.2300768 0
13.6818199 -5.0075440 14.8712673 0
9.8508654 -1.9152738 22.0225811 0
7.5897818 -3.9670372 19.0926838 0
8.0539179 -4.2948346 19.4026375 0
14.4354696 -4.9283752 14.4032984 0
13.9742966 -4.8651261 14.2923002 0
10.1401930 -2.3879521 28.4776745 0
12.4884253 -3.5530560 16.2406368 0
14.4880009 -4.2837710 14.0980854 0
15.0148335 -1.4148357 15.4105625 0
7.0861821 -3.7830427 22.9803009 0
13.8886719 -2.0169582 15.2819309 0
15.0212345 -1.8909918 15.2886324 0
14.9307165 -1.9525191 15.2075472 0
11.7649336 -3.3708100 15.9666452 0
13.8385525 -2.5682862 14.4307175 0
14.3215218 -4.9174199 14.3202667 0
12.0811014 -2.9256938 17.0288582 0
13.8276720 -5.4065819 14.6131210 0
9.7675381 -4.0308352 16.2508183 0
14.0353432 -5.3234525 14.4939919 0
13.9141111 -1.9918276 15.3182144 0
14.5279808 -2.1275184 14.9926844 0
12.0489655 -2.9338017 16.9929028 0
13.6965170 -3.7192822 15.3925228 0
12.9633055 -2.8439918 16.3370438 0
14.3907185 -4.9251585 14.3778887 0
12.3442469 -7.2231221 16.4622250 0
14.1557550 -3.0437508 14.4056292 0
10.9803143 -6.8779120 16.4629936 0
10.1000099 -2.3603873 28.3615990 0
13.9363146 -4.3420639 14.5242405 0
14.1050034 -5.1434255 14.1624098 0
13.2506351 -5.6655893 14.3618479 0
12.5393381 -6.5028653 16.0284843 0
11.8512201 -3.4658663 15.7306271 0
13.5212116 -4.0843596 14.6894531 0
13.1433849 -4.9532151 14.5003319 0
13.5834236 -4.3399124 14.5546885 0
12.5016727 -5.0840931 14.0892611 0
9.1039982 -5.1725988 16.4609776 0
13.1574221 -4.3304386 14.5314636 0
13.9175329 -3.9663966 14.7228489 0
13.7994127 -5.9195747 14.7199068 0
11.8116474 -3.4576924 15.7033100 0
14.0497942 -1.6382797 15.2947721 0
9.3890352 -3.9990504 16.0587730 0
13.0702171 -4.8119459 15.3724737 0
14.3726301 -5.2348156 14.0278721 0
13.4228773 -3.3123431 15.3399391 0
13.8923321 -2.1144049 14.7824488 0
13.0248423 -5.1359344 14.5856304 0
13.7309427 -4.2570057 14.7304144 0
12.4793358 -3.0934935 15.9914761 0
13.3831921 -4.3519516 15.0561514 0
14.0988512 -4.2502737 14.3591375 0
13.2655191 -4.6825161 15.1171370 0
14.4983349 -2.3017485 15.5187197 0
13.2911692 -5.1842766 14.7852106 0
14.3776159 -4.9253674 14.3663445 0
14.2746620 -5.5213661 14.9005165 0
13.6747122 -4.8992414 14.8484793 0
12.1182003 -7.0990891 16.4637489 0
13.7673120 -5.3907776 14.2582512 0
13.4195528 -3.7717667 14.3561668 0
12.9000063 -4.6708331 15.4053354 0
14.1661291 -4.9723082 14.5691385 0
13.0676155 -5.1632528 14.6053600 0
13.9096937 -5.2269959 13.9600105 0
12.8848753 -6.7507915 16.4737015 0
12.1247129 -4.8415728 14.5949516 0
13.7612600 -5.7624869 14.6736898 0
12.7398291 -4.5576215 14.6049805 0
13.3082218 -4.6636462 15.1609755 0
13.1954203 -5.2841673 14.2814312 0
11.5514412 -4.2617979 15.8054781 0
12.8206997 -5.4349103 14.1553526 0
15.1481552 -1.9137098 15.9542599 0
13.5032272 -6.0405507 15.5242910 0
14.1252699 -4.8760576 14.3791227 0
14.2370768 -3.9619610 14.3708849 0
14.5228567 -4.9758024 14.7712975 0
13.6496353 -3.7926154 14.7040644 0
14.4218130 -4.7375703 14.0688124 0
13.2682791 -4.3503127 15.3235674 0
11.3718634 -3.4620402 15.4368525 0
12.2156219 -3.7077394 15.7787008 0
13.8134327 -3.4090605 14.1818018 0
13.4250860 -2.5393555 14.7483749 0
14.4294033 -3.5826311 14.4061880 0
9.2464838 -5.2730646 16.5994225 0
9.5339108 -6.2389545 19.2218361 0
13.9023428 -5.5153179 14.3769417 0
13.4452181 -3.6257079 15.1577730 0
14.4421549 -5.1073728 14.1309462 0
14.0747404 -4.8664522 14.9173298 0
14.1507015 -3.3874314 14.3259125 0
13.7534075 -4.2527380 14.6190910 0
13.4376926 -3.1167023 14.1088104 0
13.4413004 -4.8810463 14.8452291 0
13.0726633 -5.5482330 14.4333286 0
14.1132030 -5.1569934 14.1711082 0
13.4032717 -3.6239951 15.1223793 0
13.9806690 -4.7214737 14.6774921 0
10.8935633 -5.4084973 16.5347290 0
12.5434093 -5.2869301 14.0767164 0
12.9815559 -4.6864758 15.4497137 0
14.2600594 -3.3472202 14.3682051 0
14.2521191 -3.9309521 14.2710075 0
12.9592886 -4.0428047 15.1906509 0
13.1666431 -4.2698417 15.1927967 0
14.0009089 -3.2110755 14.3857250 0
9.4045343 -5.1243796 18.8053017 0
13.3412981 -5.0747776 13.8356285 0
13.7725620 -3.6868956 15.5190382 0
14.5767193 -3.1788971 14.9075089 0
13.9936266 -4.1211996 14.6782608 0
13.1551952 -5.8498960 15.1383991 0
10.7540255 -6.5011783 15.8465929 0
14.0704679 -2.5520787 14.4938269 0
13.7045889 -3.4708183 14.4235592 0
14.3879852 -5.2227306 14.0314808 0
13.2158804 -5.6338048 14.3370237 0
14.5556641 -4.8431482 14.2197695 0
13.8960133 -5.5170560 14.3718071 0
13.8603802 -3.9905598 14.7157507 0
13.7818689 -4.3188791 14.6795559 0
13.1091814 -3.3432665 13.9175253 0
12.2200031 -2.9429705 16.1564674 0
11.9060125 -4.1796117 16.6765194 0
12.8129816 -2.8769574 16.1800652 0
11.1151905 -3.7147152 14.7870255 0
13.9152746 -5.5409222 14.3683367 0
13.9581060 -5.2913976 14.4583817 0
14.8861208 -3.0836546 14.7106962 0
14.6582088 -4.0224905 14.2104368 0
12.8514938 -4.2808938 14.9191408 0
13.3045893 -5.1289344 14.7218237 0
12.9253588 -5.3168368 14.1841593 0
11.0822344 -4.8049307 16.1380405 0
13.8120270 -4.8400970 14.7733202 0
9.7251310 -5.4606667 19.3218117 0
10.7998438 -6.1323414 23.1410980 0
11.5671844 -5.2035503 16.6592560 0
13.9791508 -4.3045278 14.5899343 0
14.5953016 -4.8409729 14.2373581 0
13.3210268 -5.4169440 14.4290848 0
13.9741831 -4.1651988 14.6385889 0
13.8850269 -3.5003564 14.2956362 0
13.8256388 -4.2005062 14.8104191 0
12.8347912 -2.8509810 16.5121098 0
13.3710384 -4.2037487 15.1426659 0
14.2351408 -4.8949380 14.3745909 0
12.6230392 -5.3633099 13.9959259 0
13.8090563 -3.6524820 14.2780247 0
13.7207365 -2.4132872 14.2624588 0
13.1727638 -5.2639966 14.3773518 0
12.9337473 -2.7669988 13.9747276 0
13.3625937 -2.8056519 17.5344086 0
13.6683350 -3.3451345 14.2086430 0
13.7458620 -2.6163976 14.5280972 0
12.1262474 -3.5455527 16.6323967 0
13.7568388 -5.2487178 14.3450060 0
11.5601864 -3.4114928 14.7706032 0
13.4572744 -2.5384123 14.3007326 0
11.8982372 -3.6161809 16.2184582 0
13.8017311 -3.8890476 15.0724201 0
14.1107330 -4.8597307 14.3841057 0
17.1033592 -1.4665955 31.7000904 0
14.2673197 -3.8242838 14.0848141 0
13.8944778 -2.9064074 14.3381310 0
14.4719524 -4.0855546 14.2621279 0
12.3122416 -2.9051576 16.0285854 0
14.0894146 -5.1922288 13.4908037 0
13.6607704 -2.2257791 14.6679716 0
14.2474823 -3.3476896 14.3777304 0
12.1533804 -4.7500353 14.8546581 0
12.2950754 -3.6097589 15.8262548 0
13.4282932 -2.6442759 14.2011805 0
12.2180300 -3.6777766 16.0468216 0
13.8245058 -5.4873247 14.3313484 0
14.1741524 -2.4483681 15.2809353 0
13.1653357 -5.3636513 14.4413700 0
13.2048531 -4.3772640 15.2564936 0
13.4034796 -5.0762620 14.8643742 0
13.6964750 -3.2312286 15.6108465 0
11.7998495 -3.8479617 15.3452129 0
12.8916130 -4.8144917 15.5415354 0
12.0929728 -3.9311848 15.1039038 0
11.6438265 -4.2273836 15.3864279 0
11.4290562 -3.7700913 14.8872509 0
14.1110382 -5.0368443 13.6754227 0
12.2522354 -3.1153080 14.3099079 0
12.3133259 -3.0524011 14.3610497 0
13.8137121 -3.7391152 14.8076506 0
13.3849592 -4.0135531 15.6181631 0
14.2686729 -3.6245961 14.3426933 0
12.8384295 -4.8764658 15.4387445 0
13.3251457 -2.8025036 14.5083323 0
14.2237482 -4.0612345 14.0270243 0
11.7938328 -3.9053817 15.0780945 0
12.1958199 -3.9295249 15.4947786 0
13.8961964 -2.7134740 15.4117985 0
13.5763493 -2.5039666 14.1990232 0
13.8297615 -4.2280965 14.8938112 0
11.4818134 -3.8913875 15.0835342 0
11.2083158 -4.3620410 15.0888100 0
13.1047287 -4.0239315 16.7246666 0
14.3652849 -5.0650430 13.7401772 0
11.7373438 -3.5257649 15.0577374 0
12.8704891 -3.1519203 14.9713421 0
12.9844322 -3.9484446 15.3930979 0
13.9118042 -4.0348887 15.0509424 0
11.8341084 -4.8833766 14.5609188 0
11.6463280 -3.7740481 15.5389690 0
12.1053686 -3.9796209 15.7655334 0
13.5554438 -3.9429131 14.8373270 0
11.9791718 -4.1981325 15.6400442 0
12.1062393 -4.0943055 15.9328880 0
11.1351719 -3.7077298 14.8259630 0
12.8486776 -2.9435360 14.2934446 0
13.3264780 -4.1852608 15.0548124 0
12.1863852 -4.0401645 15.4649982 0
14.3319349 -2.9451880 16.1776009 0
14.2403250 -3.7507186 16.4689445 0
11.8088617 -4.8201399 14.6334543 0
12.5790005 -4.9559493 15.2546329 0
12.0057755 -3.5790136 15.3978500 0
11.9244957 -4.2631884 15.3632011 0
14.2849560 -4.0068097 17.4269943 0
14.5718889 -3.1604304 14.5432482 0
12.9708605 -4.4825964 15.9707079 0
11.8417091 -3.8751366 15.1671829 0
11.8511524 -4.8262296 14.7119284 0
13.7505159 -3.6972210 15.4631882 0
12.1884069 -3.9375064 15.5064211 0
13.5648232 -4.0048203 15.8304510 0
12.8338814 -4.4333296 14.9251833 0
11.6564207 -4.8744850 14.9624348 0
13.4128132 -5.0979996 14.8690767 0
11.8107033 -4.8175626 14.6447973 0
11.8136320 -3.8920941 15.1081905 0
13.7366877 -4.3269739 14.6412001 0
12.9488211 -4.3572154 14.8281088 0
11.3778496 -3.8206992 13.8065615 0
12.6909952 -2.9621150 14.0330105 0
11.4839630 -3.7280717 14.8369722 0
12.5774603 -3.0369394 13.9562979 0
12.2085943 -3.3154631 14.9145479 0
13.3044882 -3.8293533 15.0497618 0
13.3957338 -2.7592542 14.5411949 0
13.2970772 -4.4941220 15.0506859 0
11.8316097 -4.6913042 14.7775297 0
11.9285812 -3.5127304 14.8793440 0
12.9027691 -4.2545748 14.9659815 0
12.2521391 -3.8791828 15.3898849 0
12.8608694 -4.4551077 15.7810879 0
13.9202461 -4.7551374 13.2471437 0
13.5775089 -3.7516844 15.2987499 0
12.1365709 -4.0360169 15.8106623 0
12.5489454 -3.4492235 15.8895884 0
13.9757862 -4.9598780 14.9476385 0
11.8367205 -4.8807101 14.5591040 0
12.3895111 -3.1712365 15.1582737 0
13.2851515 -4.6526709 15.1288052 0
11.6535263 -4.8164411 14.8374987 0
13.5778637 -3.8266208 14.8264074 0
11.4364424 -4.8520555 14.9060888 0
13.2536020 -5.3721733 14.4053068 0
11.4669867 -4.8648133 14.9818792 0
11.6820526 -4.2074742 15.4825068 0
11.1681404 -3.6831303 14.6998987 0
13.7981167 -4.3179750 14.6935244 0
12.9849119 -3.9460943 15.4505033 0
11.9194098 -3.9011734 15.4427490 0
12.0412455 -4.3809900 15.7206545 0
13.1202574 -4.9317331 14.5432787 0
13.2577477 -4.5136189 15.2069750 0
11.4843912 -3.7440886 14.8308821 0
13.7210360 -4.0960236 16.6461906 0
14.2126236 -5.0640430 13.5843573 0
11.4515524 -4.8607531 14.9225693 0
12.8625126 -4.7435799 15.6054945 0
11.7908545 -4.6942282 14.7093534 0
11.1721849 -3.7452507 14.8388338 0
14.5601540 -4.2180295 14.1048508 0
11.2512388 -3.7905059 14.6434650 0
13.3357725 -4.1946068 15.4126730 0
11.9700489 -3.5465455 14.8584900 0
13.3227930 -4.1497955 15.1147280 0
11.1800776 -4.9395375 14.9334278 0
13.6834440 -3.9912634 16.4207897 0
13.5740499 -3.8318064 14.8283234 0
11.8039236 -4.6943541 14.7377663 0
14.9735832 -5.1550260 13.8076792 0
13.9774818 -4.7456636 14.7231274 0
11.4584923 -3.7815931 14.7701635 0
11.8733912 -3.8633821 15.2298355 0
15.4826832 -2.7664564 15.9446335 0
11.8669262 -3.8528056 15.0868673 0
13.6803608 -2.6732879 15.6615429 0
13.2936296 -3.1968071 15.6902151 0
12.2457981 -3.2789505 14.9685459 0
11.6696548 -3.4178166 15.1555195 0
12.3256540 -3.8498828 15.4981146 0
11.3530531 -3.7536826 14.7662230 0
12.0825577 -4.3765650 15.8056574 0
12.0117998 -5.1483326 14.5747118 0
11.9819183 -3.3619540 15.3222532 0
15.1559591 -4.8798461 13.7240915 0
13.0415554 -3.3264515 15.3714209 0
11.4320869 -3.8912444 15.2319946 0
14.3298540 -3.8670056 14.1226988 0
11.2006578 -4.9601398 15.0843163 0
11.4975290 -4.8712978 15.0509434 0
11.8899775 -4.1988983 15.4951153 0
13.6250248 -5.0292926 14.8357458 0
13.6524401 -4.9420857 14.9502754 0
12.2014637 -3.3638477 15.2296267 0
12.2768602 -3.2687938 14.9891434 0
11.0805655 -4.1255407 15.7859049 0
13.4918528 -4.5331116 15.0359793 0
13.1639261 -3.3032641 15.5064106 0
14.5894957 -3.1578419 14.9082184 0
13.9265976 -3.9927425 17.5568676 0
13.3839483 -4.3269057 15.0393963 0
12.1587152 -3.9439240 15.4395390 0
11.6907635 -4.0918164 15.5483170 0
12.5940189 -3.0023689 14.0535536 0
12.9157410 -4.9164877 15.5115089 0
13.6610785 -2.5916605 14.7367172 0
13.3232918 -2.6916568 15.5219803 0
11.3121557 -5.1853566 13.6155357 0
14.3807421 -3.5546284 14.1998434 0
11.7512312 -3.8800356 15.2511835 0
12.9643002 -2.8581364 14.3799915 0
14.4531221 -3.8508751 14.1475258 0
12.1635790 -3.9439299 15.4407949 0
11.2273092 -4.3623819 15.1389799 0
12.7308168 -2.9245672 14.0592012 0
11.7352877 -3.8282464 17.0571213 0
14.9081059 -4.9605455 13.8464174 0
15.1897116 -4.5618191 13.7279081 0
12.7613926 -4.4548850 15.6362934 0
11.7313347 -3.8156302 17.0569286 0
11.9953871 -3.4523454 14.9981060 0
12.6447020 -2.9935544 13.9988251 0
13.6871805 -3.5436838 15.3839588 0
11.6864948 -4.3233500 15.3278122 0
15.1232986 -3.7332726 14.4910479 0
12.3328485 -3.8373351 15.5196524 0
14.5690241 -3.5552995 14.4632874 0
12.0928049 -4.0936580 15.8959103 0
13.8999586 -3.9900596 14.6835318 0
14.1517153 -3.9452658 17.9044266 0
12.3253574 -3.2808332 15.4128523 0
12.1912346 -4.0369959 15.4909878 0
12.0647345 -3.4627843 15.6434822 0
11.5919933 -4.2277122 15.4267769 0
15.0170021 -4.8682570 13.6991730 0
14.3014593 -3.2849908 14.4194345 0
11.4403429 -3.6395066 16.7791386 0
11.6706238 -4.0823545 15.5254622 0
12.0449543 -4.3685627 15.7232552 0
13.5462952 -2.5418115 15.4173288 0
14.0369711 -2.5875564 15.5463495 0
13.6493340 -3.9166975 14.7806425 0
10.8941135 -4.1244512 15.6668186 0
10.9569988 -3.9055779 15.8076630 0
14.6567268 -4.2907825 14.1544800 0
10.9631414 -3.8654933 15.9355145 0
13.5397940 -2.7430542 14.2624903 0
14.2226095 -3.7602077 14.2607450 0
14.3788853 -1.8216401 13.9672842 0
14.3868380 -3.9626236 13.7514200 0
13.4064999 -4.3789620 15.0980577 0
12.2239571 -4.0111203 15.5471449 0
15.0560818 -4.5676484 13.8590660 0
12.0606241 -3.4706907 15.5932226 0
13.2499008 -5.1562338 14.7505217 0
13.2960901 -5.0373926 14.8469553 0
15.2145939 -3.4354358 14.0538492 0
13.3377953 -4.0803676 15.0673256 0
14.3691730 -3.0815673 14.5713768 0
19.4412994 -1.1940230 17.4281864 0
14.7957258 -3.2147100 13.5841494 0
15.2840691 -1.8910666 13.8670702 0
13.7724266 -2.6248069 15.6020527 0
11.9861650 -3.5346797 15.4308996 0
14.2001038 -5.0702262 14.0427399 0
13.1719723 -2.5045848 14.1146698 0
15.2823439 -5.1944714 14.0319672 0
14.8453350 -5.1521153 13.7683611 0
10.8810577 -4.1539221 15.4202509 0
15.5339069 -2.0817010 14.2039347 0
14.1053305 -1.6859697 13.5045700 0
16.1931515 -2.6141367 14.8409204 0
11.5640936 -5.1455536 13.5791616 0
14.2850037 -5.3006854 14.1779366 0
15.4422970 -2.1375060 14.1674061 0
14.4048166 -1.9542930 13.6597738 0
11.6351213 -4.8611560 14.8766594 0
11.6414452 -4.8616042 14.9004517 0
15.3590260 -1.6729333 14.4106922 0
11.7218122 -4.2269392 15.5395269 0
12.1515303 -4.3784490 15.9411831 0
11.1076031 -5.0176477 15.2881365 0
14.1329269 -3.9200897 17.2637806 0
12.6678753 -2.8867912 14.3829260 0
13.7334356 -3.8823688 14.8358421 0
11.6980867 -3.7819734 15.7123919 0
12.9014111 -4.6621790 15.4208269 0
11.4136190 -4.3284597 15.2646093 0
15.1360273 -5.0745506 13.3786535 0
14.2694302 -3.9323056 18.0613537 0
14.2044573 -3.9850235 14.0439663 0
12.0406294 -3.7614553 15.3964844 0
12.1077938 -3.3468454 15.4403181 0
15.2876177 -5.2083173 13.9185476 0
12.1052103 -4.1286898 16.0185604 0
14.6839952 -4.6310668 14.0479927 0
12.1128054 -3.9898379 15.7349033 0
13.0913591 -4.3496332 15.0930004 0
11.4495697 -3.7526360 14.9465084 0
14.0061483 -2.6544428 15.5085888 0
15.1255455 -3.6058114 14.0399103 0
13.3210392 -5.2929430 14.7391138 0
13.2131033 -4.2179170 15.2810106 0
12.1630449 -4.3003435 15.8850250 0
13.2233620 -4.2081189 15.2875738 0
11.9495058 -3.5933414 15.3201189 0
10.9980335 -4.1194549 15.6618137 0
14.9709616 -4.5500946 13.8306637 0
11.8775425 -3.3774838 15.3819809 0
12.1961813 -4.0560699 15.8432579 0
11.2057676 -4.9840527 15.2122831 0
13.9267912 -2.6811519 15.4445038 0
16.6408749 -2.6092663 14.1174421 0
13.2225428 -5.1468282 14.7260847 0
14.2971296 -3.9272346 14.2787075 0
13.5689278 -5.1174889 14.8125401 0
14.2845535 -5.5002050 14.8668318 0
12.5776434 -3.7553380 15.9544926 0
15.6472912 -2.0219376 14.2092915 0
11.7712822 -3.4921238 15.1322517 0
14.1532459 -5.4775596 14.7938871 0
12.1492424 -4.1167135 16.0562153 0
15.1246300 -3.9784262 14.4267836 0
15.8982468 -2.6113231 16.2216854 0
13.7483654 -3.8668664 15.9349194 0
12.1910582 -4.0278940 15.4851170 0
14.0574226 -3.9805875 14.2584324 0
14.0217886 -5.4558282 14.4069891 0
12.2608509 -5.0418591 14.4778996 0
14.7236872 -3.8332298 13.8859434 0
11.1951647 -4.9670429 15.1613865 0
15.2532196 -2.2333121 14.0933723 0
11.1664867 -4.9477234 15.0446959 0
15.0406199 -1.6595677 14.3684874 0
14.3767614 -3.9073749 13.7757244 0
13.8957415 -3.9965611 14.7388783 0
13.7984152 -3.8577042 14.7708139 0
14.4022064 -3.5849075 14.4147882 0
13.3947926 -4.2094111 15.1796083 0
13.7870703 -2.5639458 14.3049622 0
14.1127558 -2.2646673 12.8750648 0
14.9037685 -4.6917529 13.4840841 0
11.5361061 -5.4510875 14.1115913 0
14.3020992 -2.0515623 13.6280651 0
12.6355038 -3.3969352 16.0423660 0
14.4520302 -3.9333014 14.5202560 0
13.5733385 -4.2729044 14.6252356 0
14.0861397 -2.4286606 15.4203262 0
14.7388105 -2.1625013 13.5835953 0
16.2533283 -4.1311970 14.0178699 0
13.2507505 -2.5579708 14.1408997 0
13.1401825 -4.2926207 15.1556597 0
13.8741503 -3.8375437 14.9594145 0
15.1400194 -3.2105215 14.5638132 0
15.6952410 -4.9257779 13.9028406 0
13.0763798 -5.2311268 14.8296595 0
12.3617096 -3.9027596 15.6850662 0
14.9751472 -1.9171569 14.2750654 0
13.3103695 -4.2132082 14.9234419 0
15.2138929 -5.1633987 13.4508705 0
11.5334816 -4.2591057 15.8331671 0
12.7630520 -4.5810390 15.3638964 0
14.7124548 -3.6882625 13.8638115 0
13.7640781 -2.5962534 16.0192184 0
11.4826803 -5.1647196 13.6272020 0
11.6378584 -3.7842228 15.5827379 0
14.0903406 -2.2792509 12.8790588 0
12.4831648 -3.4185948 16.0715714 0
13.8853207 -3.2965372 14.2999077 0
14.3438683 -3.0945392 14.5549107 0
15.8833427 -3.4572532 14.3310347 0
12.2634468 -4.0418286 15.9880667 0
10.8813248 -4.1243405 15.5869608 0
11.2137861 -4.3678017 15.0915880 0
14.9721279 -5.1344032 13.4021378 0
14.8089371 -1.8165804 14.2745914 0
12.0802078 -4.9771061 14.7510576 0
13.8716650 -2.5704086 15.2250948 0
14.0629101 -2.5280864 15.2430115 0
13.7186985 -4.2611790 14.4548264 0
14.7845068 -3.8841159 13.8853626 0
10.8989697 -4.1137533 15.6899033 0
14.2865801 -1.8185343 13.3475075 0
14.5326719 -1.7844537 13.2358704 0
12.4159031 -3.5353205 15.4578533 0
13.2767572 -4.2402573 15.1483459 0
12.7666159 -4.5772152 15.5640125 0
14.1147604 -1.8107227 13.1869764 0
12.5217533 -3.4095335 16.1238689 0
11.6315155 -4.8612790 14.8657932 0
13.8158388 -2.4567094 12.8360977 0
12.0766497 -4.1329718 15.9524307 0
14.3862133 -5.1825266 14.5352421 0
13.3201656 -4.5522575 14.9110403 0
12.8522453 -4.7808061 15.5028362 0
11.4558496 -4.8590288 14.9227991 0
14.2607670 -5.1285896 13.3724413 0
12.0612879 -4.9782867 14.7105455 0
14.9545898 -5.0729971 13.3465090 0
14.2772760 -1.9334050 13.7325516 0
13.0792398 -4.8253484 15.3436213 0
12.1126671 -4.2698274 15.9462843 0
11.9120884 -4.6263952 15.2275858 0
13.3386526 -4.2023444 14.9281092 0
13.8256159 -2.1934450 13.2345247 0
12.8376799 -4.5821867 15.6601334 0
13.0139189 -5.1961865 14.6603947 0
12.4205952 -3.1236904 15.2170630 0
14.0611486 -2.4619141 13.1637802 0
12.4722214 -3.9878881 16.1378994 0
13.7733669 -3.2076144 15.6829967 0
17.8472004 -1.5615613 14.8623009 0
11.8813696 -4.6241126 15.1558113 0
15.2935839 -1.9806398 13.4615440 0
11.5697565 -3.6657526 15.6939335 0
11.6300964 -4.8706741 14.9089680 0
15.4012556 -4.8662271 13.5550280 0
13.8336668 -2.4262369 13.3215542 0
15.3906517 -2.1587505 13.8515062 0
13.7778587 -3.2165451 15.6905603 0
11.9892149 -3.8582959 15.6190395 0
12.1570330 -4.1224113 16.0721703 0
15.0269346 -4.5736299 13.6747017 0
15.0397024 -4.8771391 13.7298870 0
13.3745966 -4.1715717 15.1315603 0
15.0093422 -4.5399413 13.8350792 0
12.1835127 -4.3334036 16.0309181 0
13.8273134 -4.4409943 14.7712326 0
14.7082682 -3.8779762 14.5097609 0
15.2250118 -4.4830832 13.5566120 0
16.1642246 -1.8811765 15.1044340 0
11.4586573 -5.1707668 13.6147470 0
11.4189034 -3.7697568 14.8572636 0
10.9566231 -3.8650818 15.9171247 0
13.2912207 -5.1873651 14.7937460 0
13.6659765 -2.6497898 14.2678986 0
15.2889748 -1.7120571 14.3986588 0
13.1201696 -5.2166491 14.7506256 0
11.6037884 -4.1421232 17.0275726 0
11.7877550 -4.8120794 14.6027851 0
11.8636198 -4.8213921 14.7194653 0
12.1603756 -3.6719472 15.2838297 0
14.5247936 -5.1358995 14.1570492 0
15.8094168 -2.7036839 15.6292763 0
11.6612778 -4.1948838 15.4738951 0
12.0556488 -4.2338901 15.8579044 0
13.3947649 -2.6314392 15.5953083 0
12.2039232 -4.2261252 15.8867722 0
13.7742386 -4.0768838 14.8547888 0
12.0530872 -4.9872580 14.7002707 0
14.7255468 -2.1737752 13.9056978 0
11.4942379 -5.1811018 13.6554079 0
12.4630270 -3.2204864 15.2010746 0
12.3861732 -5.3434381 14.0397520 0
14.4530668 -4.9066620 13.6755533 0
14.7655382 -4.4347339 13.6614857 0
13.8923168 -4.1645598 14.6507597 0
12.6114130 -3.0121262 15.8788586 0
13.7843847 -4.3031731 14.6850586 0
13.9512882 -3.1360219 14.3094597 0
11.2848883 -5.3493104 13.8430052 0
12.1791525 -4.1564403 15.8874493 0
11.8167343 -5.1734052 13.7415915 0
14.7293348 -1.8452014 14.2219276 0
13.6017046 -4.0998335 14.7199163 0
14.5871677 -1.7971071 13.7161674 0
11.2744226 -4.9576759 15.1780910 0
13.3006668 -4.7091284 15.1599083 0
11.3916483 -5.0429215 13.8508129 0
11.9626827 -5.1910572 13.6682930 0
13.8237028 -5.5415392 14.3095503 0
13.8742809 -4.4762545 13.1742182 0
14.5113926 -5.6177096 14.0256338 0
13.0959702 -4.4993391 15.0152588 0
12.4064150 -4.2684970 16.1498203 0
14.3939247 -4.5216770 13.3649788 0
11.9440050 -4.0460382 15.4046459 0
12.4419041 -3.1828728 15.6023588 0
11.4042006 -5.0521560 13.8888855 0
14.4235458 -4.7152681 14.0449343 0
14.5998983 -1.7439133 13.3091326 0
13.6566753 -2.3935130 15.1902876 0
13.8336878 -3.8650811 14.7717581 0
11.9457369 -5.9052210 14.3540277 0
11.4442482 -3.6367433 16.8420143 0
14.5157175 -5.2557521 14.0911818 0
16.0344524 -2.5556273 16.3158226 0
13.0263205 -4.1409316 15.5478487 0
13.2948589 -3.1959333 15.6749897 0
12.9324255 -4.2026987 14.9581442 0
13.8340311 -4.8505483 14.7807884 0
13.3193607 -5.1776919 14.8194284 0
12.5206490 -3.1826317 15.2918444 0
13.7543802 -4.1075282 14.6804457 0
11.7682772 -5.0596185 13.5320864 0
12.0074549 -3.6349967 18.4265423 0
17.3822651 -1.5413871 14.3224583 0
12.2973871 -5.3030047 13.9006119 0
13.1808834 -4.3830037 15.0229063 0
13.3522234 -4.9256516 14.8413877 0
13.4897594 -4.0431466 16.1597519 0
11.6090546 -4.2187538 15.4735041 0
14.2578440 -2.4200375 15.1257610 0
12.1809072 -4.0068412 15.9421043 0
13.5848560 -5.7031512 14.5572462 0
12.5326033 -3.0156431 15.4176826 0
11.6846886 -5.0462933 14.0904942 0
11.8928413 -5.1633887 13.5397835 0
11.2180185 -4.3545790 15.1699114 0
12.9326525 -4.9013362 15.5529985 0
14.8388309 -4.7752137 12.7354164 0
12.3276367 -3.9180262 15.6059885 0
11.3613577 -3.7687595 16.2403851 0
13.0607347 -3.6286657 16.2693729 0
14.8575516 -1.7837518 14.3033495 0
14.4113541 -3.8001831 14.2940283 0
13.8915195 -4.8108950 14.7274771 0
11.8552914 -5.0956264 13.6330872 0
13.3755417 -4.2756290 15.2228403 0
11.5546885 -5.1340246 13.5322037 0
11.0858345 -3.9034789 15.8733854 0
13.5026197 -2.5546486 14.2615747 0
11.4037819 -5.0501804 13.8770361 0
14.2269697 -3.5263758 14.8881559 0
12.2165031 -4.2268271 15.8995762 0
11.8695536 -4.8861923 14.6073771 0
12.4874325 -5.4809289 13.9848795 0
15.7561493 -2.5190647 16.1346359 0
15.1424561 -1.9519339 13.8189096 0
14.2782421 -5.1671538 14.4619732 0
12.0648918 -4.9801326 14.7180738 0
15.1021662 -4.6788211 12.8807373 0
13.3578157 -5.9235826 15.3003569 0
13.2931013 -4.9437647 14.9266891 0
15.3101320 -1.7952615 14.3368044 0
14.1187801 -1.8717178 12.7712088 0
14.0186224 -3.9873254 14.7433929 0
15.4273758 -1.9322751 14.6691208 0
11.3971205 -5.0495830 13.8711109 0
15.0735617 -2.1866364 13.5719461 0
14.2653732 -1.8474251 12.6851530 0
14.1338358 -2.3588154 13.0184755 0
11.2610083 -5.3943381 13.6721659 0
13.5669012 -5.6953959 14.5449877 0
13.3600788 -4.2135696 14.9684200 0
14.0847731 -4.9642138 15.0384874 0
14.2346344 -3.9518538 14.3761539 0
15.1122503 -4.9174976 13.2726164 0
14.3863859 -4.8403010 14.2658577 0
13.3536901 -4.8921900 14.8493900 0
13.4154034 -3.7763538 14.3092966 0
12.9288073 -5.0320024 15.6780310 0
11.6903543 -4.0815773 15.5653172 0
11.6576796 -4.7509313 14.8978415 0
15.1430607 -5.2219181 13.8829994 0
14.5584211 -3.7372506 14.3785295 0
11.3104048 -5.1926718 13.5837936 0
13.2098303 -2.8216279 15.1748762 0
14.4810123 -1.8464183 13.6727791 0
15.1904402 -3.5741198 14.0743599 0
15.2412014 -1.4842917 14.4568510 0
13.7440805 -2.6217513 15.7093382 0
15.6350718 -2.0229018 13.9318495 0
14.3207121 -3.6203375 14.3346329 0
12.9607649 -4.6781244 15.4555483 0
13.8403301 -5.5590882 14.1114635 0
14.1437750 -2.2487113 12.8809481 0
15.5500698 -2.7186205 13.3261194 0
12.1848173 -4.2654305 15.8850412 0
13.7119732 -5.0717759 14.9341002 0
13.4045792 -3.3135731 15.3283319 0
11.4089127 -5.1069031 13.4956627 0
12.3731871 -5.0834246 14.6229820 0
15.3233709 -2.8120825 13.2913322 0
15.1061563 -4.7911081 13.7511120 0
14.1142702 -3.9713116 14.2921848 0
12.1455355 -3.7867067 15.4968433 0
12.7580338 -4.4525156 15.6273718 0
14.2752171 -3.6163270 13.8907633 0
14.8821659 -3.5060098 13.9688587 0
12.4377298 -3.5214257 15.5049486 0
15.7770834 -4.9897499 13.3887405 0
14.4283447 -1.8644149 13.2592630 0
14.1915607 -1.7830760 14.0053205 0
14.8568840 -4.5580287 13.6507044 0
13.2908306 -5.0371714 14.8389091 0
13.8309526 -5.5667658 14.9085541 0
12.2467356 -5.3283200 13.7435579 0
15.0344162 -2.9495959 13.3936787 0
14.3815756 -4.9209676 14.3489199 0
17.6466656 -1.4209067 14.4388590 0
14.6556044 -4.8195925 12.9028091 0
14.9304361 -4.9642210 13.8650742 0
13.3216562 -5.0743189 14.9832191 0
13.5468740 -4.9978685 14.8760824 0
16.0759773 -2.5730960 16.6387863 0
11.7992229 -5.0748591 13.5713396 0
13.6884880 -4.8901467 14.8340578 0
14.1064024 -1.7839483 13.9828768 0
13.9757633 -5.3734164 14.9299707 0
14.0288181 -2.5551825 14.8329496 0
14.6607971 -3.8759286 14.1466408 0
11.9038963 -4.3934145 15.8049717 0
15.0106134 -4.9637079 13.2304449 0
12.8423176 -3.2284837 15.9856911 0
13.2860584 -5.1746845 14.7904987 0
13.7917776 -2.5389755 14.5941610 0
14.9966002 -2.2401683 13.5489702 0
14.3084030 -5.2715502 14.0492525 0
14.8962231 -3.3001013 15.3692274 0
14.6945333 -2.1685646 13.5583572 0
17.3004131 -2.0973210 17.6006470 0
18.1455288 -1.3425070 14.5735693 0
12.4927301 -3.4067378 16.0937481 0
14.0365486 -4.7276330 14.7420406 0
13.2390308 -5.6851048 14.4180355 0
15.1355972 -4.7075386 13.4916058 0
12.8915977 -4.4643149 15.8323202 0
14.7343369 -3.6805043 14.1915617 0
14.4627056 -3.1662228 14.5141659 0
14.2171831 -3.2946894 13.2924881 0
14.3824339 -3.4676733 14.9879532 0
14.6245174 -4.4078426 13.0949993 0
15.6322317 -2.5226967 15.9734697 0
11.2189255 -4.3800173 15.0738077 0
13.5667419 -2.5601768 15.7759151 0
15.1540060 -4.8202691 12.3044271 0
14.6439962 -5.2000389 13.4830770 0
13.7381525 -4.0141597 14.7086630 0
11.7267389 -4.2275696 15.5519247 0
13.6904821 -2.6256576 14.2962198 0
14.6791210 -4.4171877 13.1107912 0
12.3754902 -4.0358977 15.9199228 0
11.8687210 -4.8121629 14.7126913 0
11.3094482 -5.0537267 13.9567842 0
12.1692085 -4.9003568 14.9717627 0
12.3812790 -3.7417161 15.8574982 0
13.5033493 -5.6736355 14.5038414 0
12.0032949 -3.8642750 15.6230917 0
11.3359299 -4.3657684 14.9298553 0
13.7099915 -4.9463005 14.9986248 0
11.4174757 -5.1159143 13.5136585 0
13.6047974 -2.6499019 14.1555634 0
13.5268850 -2.5633702 14.3374033 0
14.8157310 -1.8133783 14.2881737 0
14.2176313 -5.5148673 14.8611479 0
11.4917393 -4.8748708 15.0432568 0
11.4509907 -5.0802360 13.9953613 0
14.4737463 -3.7529709 14.0784855 0
14.3545933 -3.8539965 13.9890156 0
13.7780657 -3.8835187 15.0807505 0
15.5767651 -4.3856859 12.4726973 0
15.3129654 -4.8627868 13.0019035 0
14.7002029 -3.7811656 14.2616205 0
13.1930771 -5.7948771 14.6243258 0
13.8503923 -3.1948218 15.7807131 0
15.2962685 -3.9900146 13.9326000 0
13.4514542 -4.3687820 15.1402073 0
12.3405142 -4.8000736 15.1228657 0
14.2778015 -2.2959044 15.5835791 0
13.8805819 -3.1708219 15.8134441 0
14.2913723 -5.6840286 15.2275267 0
11.3203497 -5.2073412 13.6040115 0
12.2354841 -5.6870742 14.0253782 0
11.7472143 -5.0243878 15.0143394 0
11.9060688 -4.6142163 15.2184753 0
15.4150038 -5.1021991 15.3325729 0
13.2600784 -5.2407689 14.9278946 0
13.5539083 -2.7509048 15.6638279 0
14.0309477 -2.3118517 12.8584242 0
14.7834959 -5.1232247 13.4088554 0
18.0492592 -1.3856679 14.5687227 0
12.3551826 -3.2670238 15.4257441 0
12.6210842 -4.2416019 14.9271660 0
12.5011320 -5.1012211 14.8134975 0
12.6053753 -3.3954241 15.5907021 0
14.5299540 -2.0251017 13.7381229 0
11.5998726 -4.7628045 14.7613478 0
13.6425133 -4.4573598 14.8617697 0
15.5039301 -4.6849275 12.8242474 0
15.3610411 -2.8715658 13.1524401 0
14.0109301 -4.5414476 14.4615831 0
14.4519053 -5.2027736 13.4965591 0
13.7999640 -3.9218075 14.6869287 0
13.4434891 -5.1740470 14.8422518 0
11.3557644 -5.2392530 13.6758766 0
13.9302073 -5.5166883 14.4017668 0
17.7927494 -1.1966836 14.0855770 0
14.7430000 -3.9966826 13.2921801 0
11.4435492 -5.1723495 13.5912933 0
13.1225338 -4.2811146 16.3776379 0
13.1826582 -4.3068237 15.0177822 0
10.9910870 -4.1212001 15.6083355 0
11.9646187 -3.7952886 15.3146687 0
14.1897583 -4.3483696 13.3558865 0
15.2964067 -1.8388572 13.8598375 0
14.5311050 -2.9954782 14.6675777 0
13.8152685 -2.6895115 14.3644819 0
13.3122940 -4.9857459 14.8008986 0
13.5526133 -5.0103273 14.7632360 0
14.6006870 -1.7089177 13.2710772 0
13.8270769 -2.4983971 14.2785587 0
13.6905155 -2.6273661 14.5071726 0
14.7676325 -1.8374099 13.8473969 0
11.6401777 -4.7455134 14.8433781 0
11.1724691 -4.4488163 14.2050457 0
11.7805586 -3.7976303 17.2082024 0
14.2393379 -5.1585202 14.2321739 0
13.8214922 -3.8792291 14.7631159 0
12.0370798 -4.9607086 14.6843596 0
11.9592476 -5.1244059 13.6650972 0
14.3116570 -2.3922482 15.1068878 0
11.4090977 -5.1387358 13.5942392 0
15.0893888 -4.5947280 12.8354321 0
13.6411257 -2.4258177 14.8873281 0
15.1900997 -4.3885264 13.7882586 0
12.0824804 -4.2258143 15.9175262 0
11.2277308 -4.3525295 15.2130318 0
13.4472313 -5.1390777 15.0774059 0
14.2214251 -2.3068841 16.0732536 0
11.2065325 -5.2053733 13.6107101 0
11.4064846 -5.0509782 13.8839874 0
13.9986143 -5.1091638 15.1780586 0
14.9395370 -4.7164750 12.8757620 0
13.7211370 -5.7605944 14.6622496 0
11.2226887 -4.3747754 15.1080732 0
13.3915663 -5.6766138 14.6524477 0
13.4772558 -5.6645970 14.4789114 0
11.8919706 -4.6183739 15.1473312 0
13.4581118 -5.6720228 14.8397036 0
12.0516987 -3.7609537 15.8654327 0
13.5814381 -5.6506462 14.9448166 0
15.3593473 -4.6367779 14.3226624 0
14.8824110 -4.4027987 13.4210014 0
11.2469826 -5.3715172 13.6373539 0
12.2732296 -3.8787954 15.7064533 0
12.2844133 -3.2814829 15.7304878 0
16.1750298 -4.8683696 13.7784061 0
13.3742170 -2.4524338 14.2262745 0
15.7147951 -4.3606439 13.2613211 0
15.8399191 -4.3499203 13.2981615 0
14.5149374 -5.0101180 14.7567139 0
13.1518450 -3.5224798 16.6992779 0
11.2674961 -4.3583636 15.2532120 0
11.9514141 -5.1959281 13.5976305 0
14.6010838 -3.8288143 14.2466640 0
13.4106054 -4.9135194 14.8912601 0
15.0339317 -2.4655609 12.8699207 0
13.7397537 -4.3245192 14.6433516 0
18.3365860 -1.3870946 14.9911985 0
16.0723934 -2.6097732 15.7932491 0
16.1814594 -3.4414537 13.7506781 0
13.5617180 -5.1272278 14.9629707 0
14.0997009 -3.5808110 15.8444986 0
14.2625294 -5.5412669 13.9142122 0
14.9440498 -1.7125355 13.8909445 0
13.3144236 -5.7751555 14.5908365 0
12.0132656 -3.7288544 15.8626299 0
11.6250381 -4.1044226 15.4637489 0
14.4749517 -4.7658172 14.0713358 0
14.5505114 -1.8069921 14.1268368 0
15.8714705 -1.5449133 13.0103350 0
18.3645782 -1.6542172 15.2894745 0
13.0388994 -3.5689783 16.4472866 0
13.7061672 -4.9962697 14.8811798 0
12.2241859 -4.2200580 15.9355078 0
13.3035316 -4.5514512 14.8895874 0
14.7485981 -2.7153056 14.7929735 0
14.5321598 -4.2485118 12.6416683 0
13.7983227 -3.6760499 15.5349894 0
14.9324999 -5.1375647 13.4383688 0
14.6454391 -4.4380445 12.4763412 0
13.4362488 -4.0758758 15.3023424 0
13.5195742 -4.1838226 15.1072035 0
15.2101669 -3.3128321 14.5803280 0
16.1974392 -3.8693268 13.0435371 0
11.7059021 -4.8314571 14.9568682 0
14.7646255 -2.4683313 15.1322508 0
12.1926928 -4.0749259 15.8469963 0
15.0396252 -4.9908257 14.0306273 0
11.6555014 -4.1267791 15.4715271 0
13.6373863 -3.9162192 14.5514956 0
13.3537846 -4.5472751 14.9310799 0
13.5690966 -4.2776947 14.8186131 0
12.5877466 -3.6262519 15.2972479 0
13.1869745 -3.2463493 15.5602522 0
12.1266890 -5.0416746 14.7778292 0
13.9825754 -4.0393739 14.3891420 0
15.7881489 -5.0319581 14.1545992 0
14.1282291 -3.2869613 14.3305540 0
11.4196711 -5.0637789 13.9329653 0
11.8735733 -5.2460256 13.8219213 0
13.5315399 -2.9735653 17.2233677 0
15.5278616 -4.7525926 13.9377069 0
14.4683828 -4.7665215 14.0662937 0
13.8786039 -4.0770764 14.6495667 0
13.0723648 -3.5519347 16.5137043 0
12.1584806 -4.3071856 15.8611517 0
11.4446068 -5.1638613 13.5931387 0
15.4436846 -3.4908075 14.1885824 0
14.1567011 -2.3945501 13.1739445 0
12.1285667 -4.9851866 14.8453274 0
11.6078176 -4.7734680 14.8474417 0
12.4097643 -5.4453406 13.9082241 0
16.2454128 -1.7820805 14.8724442 0
14.8339148 -3.7332077 13.9147892 0
11.6530275 -5.0203767 14.0126534 0
13.4524603 -2.5987110 15.3890505 0
14.3268232 -5.6360502 15.1272354 0
11.8550844 -4.8176017 14.6981297 0
15.3467560 -1.6745707 14.4015455 0
14.2222013 -3.9338338 14.2477798 0
14.3223877 -3.9237216 13.7188845 0
14.2844143 -2.3192031 13.0046120 0
12.6711016 -3.0457187 15.5474548 0
12.2096539 -4.0599484 15.8595991 0
13.3790140 -4.4699745 15.1285181 0
14.1964350 -3.8112321 14.2080164 0
15.8333569 -3.0256758 13.6717339 0
14.6334448 -3.9263787 14.0401402 0
11.7141390 -5.0807481 13.4418945 0
13.7965479 -2.9151514 14.2960615 0
11.2462921 -5.1272545 13.4321280 0
12.0853357 -4.9792490 14.7647409 0
12.5249939 -4.2435608 16.4681702 0
14.6628513 -3.5568907 13.9646168 0
13.3284588 -4.4416127 15.0766163 0
11.8967876 -4.4104342 15.7615089 0
13.0456352 -5.2169356 14.5071745 0
14.9829674 -4.1756721 13.0210180 0
16.1438923 -2.6082795 16.7861671 0
15.4296026 -3.6025164 13.5629072 0
12.9773903 -5.4890513 14.3938274 0
14.5181646 -1.7903438 13.5033751 0
12.2616978 -4.0581856 15.9816732 0
11.3308067 -5.2152719 13.6252689 0
13.4440203 -2.7775557 15.4505930 0
14.5705757 -3.5446224 14.4705086 0
14.6934481 -4.7804670 14.1638708 0
13.9910707 -2.5678232 15.1921930 0
12.3114185 -4.1771507 16.1467686 0
13.1760044 -5.6676002 14.3854065 0
13.8132029 -4.4187827 14.7649670 0
13.6900988 -2.6738183 15.5272083 0
11.2357626 -5.0170865 13.4110928 0
11.9218597 -5.2736783 13.8908615 0
14.7457657 -5.0651822 13.3070726 0
13.3775425 -4.2317624 15.4357052 0
14.2683382 -4.7522707 14.9293709 0
13.1814747 -3.5740004 17.0200062 0
12.5379925 -3.0372338 15.8337259 0
16.3983307 -4.9145989 13.1479063 0
13.2778130 -5.6325440 14.5541763 0
11.4683228 -4.8571920 14.9983025 0
12.9761553 -4.9002132 15.6324577 0
14.4215937 -3.6719604 18.8169518 0
11.6389637 -4.7774410 14.9365158 0
14.1565733 -5.7119393 15.0317574 0
13.4122953 -5.8115411 14.6784239 0
14.5168924 -4.7714286 14.0937233 0
12.2001143 -4.0343924 15.9940424 0
15.1587210 -4.9819450 13.9335747 0
11.7952538 -5.0623226 13.4296761 0
11.6041145 -3.6650052 15.9458876 0
12.0286570 -4.2828202 15.7386436 0
16.5620823 -3.7010202 13.6685905 0
13.3791084 -4.3116603 15.2249956 0
14.0975780 -5.5638900 14.9566822 0
11.6632280 -5.2078319 13.7271643 0
14.1480455 -2.7264943 14.5208311 0
12.2743006 -4.8006616 14.9916267 0
16.5587120 -1.6765573 13.0485659 0
13.5470448 -3.6420712 15.3001328 0
11.5990229 -5.1598573 13.6096849 0
14.3844347 -3.6646128 18.7352180 0
16.3143768 -4.9102273 13.1387138 0
15.8517628 -1.4992412 14.0461311 0
15.7074127 -1.9834827 13.9470444 0
13.3650703 -3.2003822 16.5576134 0
14.0398540 -2.2157128 14.6987619 0
11.5127029 -5.0048018 13.8617010 0
14.0260258 -5.7285748 14.3924809 0
12.8886375 -4.3075514 15.9791899 0
14.9968033 -4.5428510 13.7026749 0
11.4043159 -4.3294845 15.2202063 0
11.4356432 -4.9651217 13.6836567 0
13.7972546 -4.3186460 15.4964314 0
11.9375935 -3.8012855 15.3924732 0
12.7507830 -2.9049783 16.1358528 0
14.5241203 -5.5817466 15.0625029 0
14.5446911 -2.8103092 14.6776838 0
12.7453623 -4.4891586 15.7549620 0
11.9133339 -4.6153517 15.2114410 0
13.9054337 -3.6453855 15.6308117 0
14.8697424 -5.2361732 14.0595179 0
12.7886019 -3.2940469 16.3111706 0
17.0436230 -4.7566528 13.8030920 0
13.5469036 -5.3416357 14.9999752 0
15.4076357 -3.3555350 14.1731253 0
14.1787071 -5.6617374 15.1363573 0
15.7695608 -1.4082170 14.6086845 0
14.0785656 -5.1261978 15.2519712 0
12.7852297 -3.2673178 15.9060707 0
17.0796146 -2.2317731 16.4266300 0
14.4411736 -4.2428131 15.1953621 0
14.9040251 -4.9502025 13.1456709 0
11.7687340 -5.0561147 13.5359964 0
13.3456326 -3.2634201 16.3718967 0
13.4391708 -5.8200755 14.7126741 0
13.6286058 -4.0122762 18.7553997 0
16.5778904 -4.4172683 13.3640738 0
14.5174637 -1.6775796 14.4768810 0
14.2563038 -5.6859279 15.2138052 0
16.3103256 -4.6407423 12.7975168 0
14.8357363 -5.4130068 14.3952179 0
14.9365845 -4.1649828 14.2733269 0
13.3248720 -5.2973332 15.1346273 0
14.1026545 -4.2966628 16.3808899 0
14.1387014 -4.8471017 14.9512367 0
15.5462236 -4.9932623 13.8232746 0
13.7410355 -5.8068957 14.9856062 0
12.3559246 -4.0268879 16.2156429 0
14.6231833 -5.2905564 14.1360254 0
14.0924673 -3.9686596 17.8577023 0
13.0861197 -3.5677700 16.5770607 0
14.3163795 -5.4454799 15.1745729 0
11.9225187 -3.8066864 15.3596201 0
13.8481798 -2.5583355 15.8211622 0
14.0997257 -5.6307030 14.4741297 0
12.7203722 -5.1653781 15.1033335 0
14.6369276 -3.4937761 14.5597811 0
15.0495453 -3.0524228 14.4353275 0
18.3692760 -1.1046461 14.6191339 0
11.6373959 -4.9841709 15.0565910 0
14.7432261 -2.1069541 15.3663492 0
13.3073397 -3.1140332 16.8262463 0
12.4290037 -3.5347507 15.6144123 0
12.0517073 -3.9211304 15.1394968 0
16.7162685 -2.4073751 16.1694889 0
16.0593700 -5.0182185 13.4460535 0
14.0553503 -2.3693974 14.7715425 0
15.3328056 -5.3659096 14.4944239 0
13.9940310 -5.0629735 15.1043806 0
15.0661116 -5.0232272 13.3490725 0
15.7722063 -5.2082963 13.5998716 0
14.5224619 -3.8814073 13.8148823 0
14.6621218 -5.3420920 14.2511520 0
13.7128172 -3.5803034 15.4789486 0
14.6981153 -3.2867620 14.6787205 0
13.3109112 -4.5819850 15.2362146 0
14.8028078 -3.6317298 14.3071775 0
14.7697115 -1.9756221 13.4910669 0
15.3156528 -2.6429291 15.2610569 0
11.7418833 -5.2050643 13.8651648 0
13.2869091 -4.2454391 15.1480532 0
14.5735970 -5.3220015 13.6968622 0
14.6073895 -5.1401629 13.8594227 0
14.9367781 -3.7297950 14.3636265 0
16.7137775 -4.9276323 13.1883097 0
18.9398117 -1.3597928 15.4421377 0
13.3926620 -4.5476947 14.9599743 0
13.6583414 -4.2748032 14.8906736 0
13.6850891 -3.9143977 14.7984047 0
14.1124697 -2.5139017 14.5674057 0
12.6886311 -3.3675618 16.1144772 0
13.8921528 -2.5208368 15.8833752 0
14.7516594 -2.1602924 13.5928097 0
14.3717575 -3.1745083 14.4707098 0
11.3896885 -5.1063485 13.5261965 0
11.9154463 -4.8894892 14.6966133 0
15.1304102 -4.8136630 12.2811928 0
14.4127035 -1.8312922 13.4471312 0
14.9171791 -2.0512617 13.6239576 0
14.6629772 -1.7906783 13.7369623 0
11.5331669 -4.3387280 15.1196594 0
13.6669168 -2.3809977 14.9272270 0
14.8803864 -2.0739708 13.6332054 0
14.1141367 -4.8595757 15.0086451 0
13.2589903 -5.4382253 14.6395197 0
12.1365147 -3.3253636 15.6168671 0
13.1613922 -4.5000677 15.1166945 0
14.7187233 -2.6137912 12.9201212 0
11.6061745 -4.7474618 14.7463188 0
14.0001020 -1.9695890 12.9047184 0
14.3083248 -2.3045263 13.1998758 0
14.3533735 -1.6135782 13.2402792 0
14.5012665 -1.5679945 13.9434509 0
14.0849857 -2.7449396 14.4781322 0
14.1865854 -2.4539855 15.6338835 0
14.3595161 -2.2551608 13.2214384 0
13.3929014 -2.6638477 15.2453794 0
13.6217766 -2.7371356 15.4264727 0
11.4894562 -4.8834009 14.9893761 0
14.5875130 -1.7467176 13.3158274 0
13.6528435 -2.3824909 15.1937532 0
13.7620659 -2.6157832 12.6674690 0
12.0252285 -3.7619848 15.8214006 0
13.3906403 -5.7277613 14.5427170 0
13.6742916 -4.2496157 14.6966143 0
14.3585033 -1.9235078 13.2520561 0
14.4482794 -3.6877356 14.4590130 0
14.7833357 -2.0622673 15.5461063 0
14.2740774 -2.1274881 12.8920918 0
13.4651184 -5.7701597 14.5946093 0
12.1721354 -3.9364583 15.4611549 0
14.4515610 -2.1474953 13.3753767 0
11.4940605 -5.0939879 13.4429131 0
14.6684942 -2.6350555 12.9151125 0
14.4818296 -1.9710819 12.9130678 0
13.2552910 -5.2709837 14.7113199 0
13.8992281 -2.5364447 15.7101212 0
12.7343502 -4.1824284 13.8872423 0
13.8505783 -2.3290036 14.8686275 0
15.4633560 -4.8617353 14.0431414 0
14.6888561 -3.8077440 12.4367428 0
15.1652117 -2.9613533 14.9150352 0
15.0440464 -1.8841239 14.4198675 0
13.0795364 -3.5603354 16.6009960 0
13.8225937 -2.5248084 14.3139858 0
14.5743475 -2.1117139 13.2621794 0
14.5642204 -1.7610737 14.5351934 0
11.8310442 -5.9943209 14.3959932 0
13.5308828 -5.2407117 14.6596422 0
13.8334627 -3.9100661 14.2757530 0
15.5452862 -4.2099166 13.7535715 0
11.3991480 -5.1290240 14.2770634 0
14.3898258 -1.8858411 13.2118769 0
13.1452570 -4.1098280 15.6041155 0
12.6416864 -3.3929031 16.0696411 0
15.5119133 -1.5118062 17.3210335 0
14.7114754 -4.7990837 12.2646437 0
16.2805252 -1.8147722 15.1586046 0
14.5960293 -3.5684161 14.2813282 0
15.1907330 -3.1171710 13.7141228 0
11.7674809 -5.0402536 13.4692221 0
14.3454523 -1.7382745 13.4917040 0
11.3839378 -4.3408675 15.1929922 0
11.3538055 -5.2279596 13.6695271 0
16.7922649 -5.6354237 15.1373539 0
15.3224840 -2.9516470 14.5834246 0
15.5206537 -1.7257979 12.9591331 0
14.8872080 -2.2061121 13.7210417 0
15.8166971 -1.9240299 13.9774923 0
16.3156414 -4.5050411 13.0235415 0
14.8141794 -3.8866506 14.1149302 0
15.3234491 -4.9941230 13.9967308 0
15.1879416 -5.2524252 13.6104889 0
13.5126638 -4.1005163 14.7227392 0
15.1962719 -3.3326857 14.2777128 0
15.6459055 -2.0161676 13.6610384 0
14.4558229 -2.1148348 13.0777283 0
15.3311806 -3.6193302 14.0949869 0
16.3690166 -2.4066396 13.7012835 0
14.0031042 -3.5280836 13.3396816 0
11.4065933 -3.6442680 17.0765114 0
15.0809193 -3.5813975 13.9970188 0
13.5924463 -5.4732537 14.6402197 0
15.3840656 -3.6885655 14.1490107 0
12.6027012 -4.6889281 15.8852386 0
13.3287315 -4.3294716 15.4117975 0
13.6178732 -5.5313568 14.6039391 0
14.4386206 -1.8697207 13.2671814 0
15.2401466 -4.8603659 13.5403929 0
14.8081875 -3.4694812 14.3840179 0
12.2742691 -4.9180522 15.1957178 0
14.7029963 -1.6002944 13.5374355 0
12.5698090 -3.9546134 16.3617382 0
16.7882118 -2.2094193 13.8826218 0
14.2070532 -2.2903957 13.0287046 0
14.8229542 -3.6130419 17.9341679 0
14.0778828 -2.7587574 14.4685917 0
15.5049095 -4.5439124 13.8401337 0
13.2932501 -4.3058810 15.1345453 0
13.3951788 -4.8807578 14.8071489 0
15.0028591 -4.8807497 13.7101402 0
11.8497047 -4.3345718 15.7936220 0
15.6631184 -4.8727632 13.6583691 0
14.6121311 -4.8668852 14.4034529 0
14.9722214 -3.4650054 14.6813469 0
13.4106789 -2.8484890 15.5540361 0
13.6563196 -4.0730438 14.7544670 0
14.5186052 -3.5848207 14.2463884 0
11.4323750 -5.1554270 13.5735455 0
15.7249060 -1.7557288 14.8049860 0
14.3114967 -2.3043370 13.2047167 0
15.9723873 -4.7421765 13.5675983 0
16.9855232 -3.2868845 12.4372473 0
15.6916409 -5.2179999 13.7261267 0
11.4320917 -5.3621984 13.9402657 0
14.4252405 -3.7638628 14.4705343 0
11.7978687 -4.0319409 15.9649191 0
13.9240627 -3.9380074 15.8901491 0
14.2616434 -3.7672114 14.2473412 0
15.4108677 -3.1089296 15.7331076 0
16.3051224 -6.1053777 18.8440018 0
18.3530350 -4.9502044 13.3272057 0
15.5425510 -1.4981464 17.3181667 0
17.9498158 -4.1459842 14.3412294 0
15.7476711 -4.2624369 12.2687120 0
18.2154312 -2.9643965 15.9810019 0
12.1354771 -5.2293048 14.9882336 0
18.5516796 0.1147109 14.2558174 0
13.3761597 -5.3455634 16.0678444 0
15.3812342 -4.3605762 12.4863672 0
13.4147434 -5.6513815 14.8081818 0
16.8967323 -6.4650741 16.2908516 0
11.8076468 -5.0877304 13.4349098 0
11.9170456 -4.8201408 14.8411131 0
13.2411585 -6.4085016 15.2292118 0
11.6087294 -4.7563510 14.7513437 0
17.4698963 -3.1784074 12.4356594 0
13.6743135 -2.6087196 17.5673370 0
11.6194906 -5.3416104 14.0035334 0
15.1612444 -4.2055063 14.4140997 0
11.7768383 -5.1037989 13.4102058 0
15.8352757 -4.3840442 12.2052526 0
13.3168058 -5.9234900 14.8204107 0
15.2673082 -3.3574989 15.0056705 0
12.0835600 -5.2003779 14.8804150 0
16.1722355 -5.3333111 15.0390043 0
15.3366842 -5.3867712 13.7681503 0
13.8794289 -3.9664571 19.3617229 0
13.6960497 -6.4618673 15.4632444 0
11.5120401 -4.2558990 15.8785191 0
13.2197447 -2.9495137 17.0558872 0
13.6558228 -6.7191067 15.7219143 0
11.9089527 -3.7153268 15.7084122 0
14.1379690 -4.6730347 17.2470741 0
13.4780989 -4.6057630 15.3801966 0
16.4706821 -4.0245872 12.7751884 0
16.2462654 -3.2760115 14.5017242 0
15.7369690 -2.6040637 15.2814484 0
13.7311058 -4.2381749 14.8907938 0
17.6156292 -4.2034383 12.5396833 0
15.4774456 -3.2505846 15.0654335 0
18.8298473 -5.1145282 13.5457268 0
14.9401827 -1.0601678 15.3601637 0
19.1415310 -3.7969768 11.8958845 0
16.2419662 -0.8457916 15.8198347 0
15.5989904 -3.6215224 14.6583118 0
18.0679836 -6.9003119 15.4498730 0
14.7707806 -4.9259171 14.7779398 0
18.2956333 -0.0933975 14.7921829 0
18.5419388 -4.9693956 12.1543455 0
12.3403091 -4.1057410 16.3543816 0
12.2487803 -3.5265486 16.3125229 0
19.6473389 -2.0370679 12.4568796 0
16.3388138 -5.0660849 14.5348616 0
15.1851702 -3.7398901 16.1427689 0
15.2203455 -3.1302955 16.9629288 0
15.6617460 -3.1576569 16.3582096 0
15.0188179 -3.4335356 16.1717148 0
16.2278404 -0.7480894 16.7689400 0
19.0899124 -4.6793265 13.5984755 0
13.1509676 -4.6918468 16.1363201 0
12.2565746 -4.4992914 16.1879654 0
14.8155737 -5.1401162 14.3385201 0
17.9837666 -5.1300540 13.4318714 0
12.9673185 -4.5167246 15.9427462 0
17.1086369 -2.5436282 15.0571127 0
19.3864727 -4.7799096 14.3428049 0
13.7717953 -5.2066779 15.7286844 0
19.5914822 -4.3917518 13.3931055 0
16.4273930 -2.1240888 15.8451319 0
16.6027603 -5.0266962 13.5720110 0
14.6392288 -5.2515068 16.1826878 0
18.1184044 -2.1870141 17.7208328 0
18.9064331 -0.1971628 15.4676466 0
14.8750067 -4.1526546 14.8533287 0
11.5965014 -4.8532205 14.7715521 0
16.4734955 -0.7572442 13.9535112 0
12.3170786 -4.6804447 15.3190689 0
13.8560371 -4.0317774 15.7535725 0
17.9063168 -4.5817795 12.8406973 0
12.2677355 -3.8809650 15.6656370 0
16.5438366 -0.1378723 14.1087217 0
17.9023724 -3.9733388 14.8412390 0
14.2546177 -3.7919290 16.3588867 0
18.2858105 -1.7874119 18.5861874 0
16.7801762 -4.7497349 13.0497541 0
16.9333878 -2.6174445 14.9695435 0
17.7872334 -4.1868944 13.7189569 0
14.8554707 -5.0710139 16.0916920 0
14.7524118 -5.2899561 16.3045788 0
