# .PCD v.7 - Point Cloud Data file format
VERSION .7
FIELDS x y z rgb
SIZE 4 4 4 4
TYPE F F F F
COUNT 1 1 1 1
WIDTH 1454
HEIGHT 1
VIEWPOINT 0 0 0 1 0 0 0
POINTS 1454
DATA ascii
-0.2408755 0.0003901 0.4898430 0
0.0160763 0.0076111 0.4357417 0
0.1962044 0.0430543 0.4043042 0
0.0968299 0.0846133 0.3724440 0
0.2065791 0.1600827 0.2504519 0
0.2526613 0.1161764 0.3297593 0
-0.0738705 -0.0151290 0.5725217 0
0.2150901 0.1140244 0.2767195 0
-0.2779436 0.0993199 0.4310823 0
0.3353248 0.0173368 0.4503420 0
0.2645091 -0.0497843 0.5363783 0
0.0650774 -0.0034713 0.4544605 0
0.3039552 0.0435752 0.4062424 0
-0.0037368 0.0852988 0.3206075 0
0.1414162 0.0764210 0.3585890 0
0.1060400 0.0158472 0.4259852 0
0.1384274 0.1492460 0.2986836 0
-0.3670372 -0.1424734 0.6139125 0
-0.1441927 -0.0479034 0.5862663 0
-0.0529122 -0.1509583 0.6333616 0
0.0478965 0.0831185 0.3749458 0
-0.1445661 -0.0761903 0.5487053 0
-0.3362196 -0.1334065 0.5908573 0
-0.0461768 -0.0112045 0.4956472 0
0.1398293 0.0766909 0.3548594 0
-0.1616179 -0.0299671 0.5231112 0
0.3113497 -0.0199580 0.4954304 0
-0.2359207 -0.0547142 0.5060141 0
-0.1679744 0.0412621 0.4676669 0
-0.2996929 -0.0876585 0.5203231 0
-0.0636382 0.0715931 0.3528578 0
-0.2002269 -0.0626086 0.5487198 0
-0.3136917 -0.1817333 0.5972382 0
-0.4581457 -0.0567011 0.6397582 0
-0.3112448 -0.1899650 0.5615526 0
0.0217695 -0.0125814 0.4624212 0
0.2056013 -0.0674946 0.5500448 0
-0.3102498 0.0650230 0.4414328 0
-0.1755437 -0.1457241 0.5874391 0
-0.3958563 -0.0259948 0.5239794 0
-0.4420180 -0.0651676 0.6058279 0
-0.0863683 0.0162157 0.4107704 0
0.0466697 0.1150249 0.2803696 0
0.0631056 -0.0053161 0.4597181 0
0.2339507 0.1237145 0.3017592 0
-0.0595785 0.0674272 0.3444217 0
-0.2098223 -0.0191351 0.4879134 0
-0.1918547 -0.2409458 0.6600611 0
0.2361963 0.0991609 0.3647627 0
-0.4336851 0.0081606 0.4410790 0
-0.2791874 -0.0182674 0.4815671 0
-0.1106653 -0.0617977 0.5750765 0
0.0845455 0.1115171 0.4374276 0
0.1402715 0.1505570 0.3037212 0
0.1949805 0.0704560 0.3669630 0
0.0686911 0.0688147 0.3738510 0
-0.3122819 -0.0587318 0.5079843 0
-0.1934958 -0.0313396 0.5566823 0
0.2405032 0.0989483 0.3683810 0
-0.2885683 0.0552903 0.4842083 0
0.3134056 0.1112607 0.3224107 0
0.0153612 0.0086534 0.4296996 0
0.4778427 -0.1254027 0.6929001 0
-0.2061345 0.1509991 0.2207499 0
0.2249567 -0.0660668 0.5529295 0
0.1973086 0.0713039 0.3705507 0
-0.4638938 -0.1981283 0.6699120 0
-0.3282498 -0.0209669 0.4909491 0
-0.3230378 0.0644367 0.4603840 0
-0.0549018 0.0597168 0.3632039 0
0.1960421 0.0428545 0.4048388 0
-0.2750368 0.0157494 0.3534123 0
-0.4052307 -0.0458726 0.5538911 0
-0.4341221 -0.0543877 0.6082191 0
0.2526676 -0.1089275 0.6201875 0
0.1098176 0.0148146 0.4372644 0
0.0592847 -0.0233006 0.7031781 0
-0.1422901 -0.0456334 0.5692566 0
-0.1622900 -0.0673033 0.5842896 0
0.0661755 -0.0034118 0.4457753 0
-0.0038272 0.0403314 0.3568758 0
-0.0525036 0.0599842 0.3607388 0
0.4311708 -0.0929056 0.6458617 0
-0.2713328 -0.1449156 0.5976709 0
-0.0946334 -0.0470339 0.5893700 0
-0.2911376 0.0583561 0.4888968 0
-0.0913670 -0.0080165 0.4910072 0
0.0089309 -0.0033767 0.4281342 0
-0.2151345 0.0508428 0.4952479 0
-0.0712077 -0.0143302 0.5440536 0
0.1481544 0.1142750 0.3089314 0
-0.1004803 0.1134053 0.2887410 0
-0.1852420 0.0360852 0.4721316 0
0.0384932 0.1198055 0.2817999 0
0.0095235 0.0155508 0.4640004 0
-0.2874000 -0.0990052 0.5488192 0
-0.4135909 0.0227083 0.4987915 0
-0.0651665 -0.1739761 0.6588311 0
-0.1969656 -0.0384351 0.5067225 0
-0.2740431 0.0414283 0.4819514 0
-0.1890781 -0.0270842 0.5455536 0
-0.2855815 0.0798137 0.4564393 0
-0.1850815 -0.0581105 0.5834051 0
-0.6408562 -0.2552420 0.8658141 0
-0.7148154 0.1023934 1.0494874 0
-0.1047712 -0.1110287 0.5577766 0
0.3506043 0.0892608 0.3517825 0
-0.2842661 0.0218482 0.4851860 0
0.1946701 0.0706003 0.3668812 0
-0.0476305 -0.0516683 0.6969557 0
0.0759811 0.0743595 0.4079201 0
-0.2572249 0.0782308 0.4533647 0
-0.2000561 0.0004272 0.4993995 0
-0.3861358 0.0178678 0.4943612 0
-0.6210641 -0.2166293 0.8316485 0
-0.3278190 0.0055843 0.4433734 0
0.0546658 0.1218266 0.3103945 0
0.3045888 0.0423836 0.4077691 0
-0.3129897 0.0646022 0.4454421 0
0.0599134 0.0940714 0.3371092 0
-0.0811539 -0.0016531 0.5993948 0
-0.2974805 -0.1276396 0.5596394 0
-0.2226602 -0.0052565 0.4667093 0
-0.3220365 -0.0236055 0.4829628 0
-0.2520664 -0.0625022 0.5285406 0
-0.1605071 -0.0084425 0.5365959 0
-0.1983222 -0.0608062 0.5457585 0
-0.3424702 -0.3023452 0.7387770 0
-0.1040521 -0.1124770 0.5602079 0
-0.4322783 -0.0335689 0.4976030 0
-0.1924811 -0.1161227 0.6022549 0
-0.1094644 -0.0629406 0.5743119 0
-0.1269668 -0.0962811 0.6409722 0
-0.1698405 0.0230986 0.5116330 0
-0.0047513 0.0420126 0.3890307 0
0.0850542 -0.0294312 0.5682086 0
0.0155767 0.0084879 0.4259255 0
-0.2699682 -0.0080441 0.4866799 0
-0.2807534 0.0940077 0.4335785 0
-0.1663814 -0.0092491 0.5570529 0
-0.1739247 -0.0524451 0.4615203 0
-0.1874868 0.0006692 0.5032070 0
-0.1415564 0.0125574 0.4607327 0
-0.0755117 -0.0164384 0.5766767 0
-0.1184648 -0.0838988 0.5645199 0
0.0151940 0.0090396 0.4299726 0
-0.0513049 0.0597223 0.3620445 0
-0.2294613 -0.0563661 0.5538040 0
-0.3556863 0.0158753 0.4719784 0
0.3007931 0.1709720 0.2735703 0
0.1113171 0.0154937 0.4362642 0
-0.2527841 -0.0772470 0.5240229 0
-0.2792302 0.0837305 0.4929294 0
-0.3119865 0.1043696 0.4786204 0
-0.3995759 -0.0270407 0.5294421 0
-0.2793838 -0.0191359 0.4841629 0
-0.0892487 -0.0003600 0.5557436 0
0.0579392 0.0945193 0.3386714 0
-0.3926684 -0.0988858 0.5949423 0
-0.1922953 -0.0012356 0.5230521 0
-0.3971097 -0.0264353 0.5252857 0
-0.0772345 -0.0185878 0.5945987 0
-0.3525402 0.0329467 0.4289444 0
-0.2961492 -0.0912816 0.5372038 0
0.2531727 0.0691221 0.3725882 0
0.2186530 0.1414709 0.2674566 0
0.4112339 -0.1663436 0.7023563 0
0.4543679 -0.2346195 0.8139834 0
0.4096498 -0.0774929 0.5742110 0
0.1812679 0.1480515 0.2664977 0
-0.2658432 0.0070098 0.5085373 0
-0.0573165 0.0148070 0.3770552 0
-0.2695263 0.0808314 0.4783312 0
-0.2355958 0.0158631 0.4874232 0
-0.4066381 -0.2083259 0.6477463 0
0.0883374 0.0813516 0.3428173 0
0.4639112 -0.1662566 0.7030712 0
-0.3446923 -0.1174317 0.5744489 0
0.5396026 -0.1357130 0.6576413 0
-0.0928828 -0.1125972 0.6330142 0
-0.3152162 0.0776602 0.4518386 0
-0.3581223 -0.0027721 0.4819302 0
-0.0900016 0.1820095 0.4071874 0
0.3444743 -0.0568372 0.5789309 0
0.0757518 -0.0623996 0.5427249 0
-0.2085318 -0.0037471 0.5077369 0
-0.4136715 -0.2123215 0.6564479 0
-0.2875621 -0.0290671 0.4725122 0
-0.2181750 -0.0887537 0.5655841 0
-0.2764812 -0.0376309 0.4793557 0
-0.0236479 0.0985141 0.3164467 0
0.4989969 -0.3926074 1.1095033 0
0.5359323 -0.1696902 0.7148007 0
0.0827239 -0.2686541 1.1532738 0
-0.2758571 -0.0954276 0.5302472 0
0.2519192 -0.1409515 0.6411018 0
-0.2000087 -0.0628980 0.5471174 0
0.0945387 -0.1594803 0.8951114 0
-0.3045059 -0.0902285 0.5268831 0
-0.0753709 -0.0557179 0.5670598 0
0.1590305 0.0324371 0.4655952 0
0.0132590 0.0075986 0.3927280 0
-0.1970750 -0.0770563 0.5720322 0
-0.1834700 -0.0809409 0.5817964 0
-0.2060073 -0.0038583 0.5034329 0
-0.2504080 -0.0759001 0.5180724 0
0.0364301 0.0277082 0.4120316 0
0.1502468 0.0343014 0.4488836 0
0.1943722 0.1536665 0.2427838 0
0.2784540 -0.1593869 0.6994684 0
0.0701460 0.0712257 0.3842662 0
-0.1307601 -0.2008440 0.6545699 0
0.0098848 -0.0032841 0.4458463 0
-0.3486282 0.0447477 0.4579387 0
0.0491753 -0.1048007 0.8320510 0
0.0991414 0.0961789 0.3249575 0
0.0862373 0.1037225 0.3178587 0
0.0894577 0.0816490 0.3452175 0
-0.2897988 -0.1743634 0.6115107 0
-0.3102238 -0.0907732 0.5364423 0
-0.1759584 -0.0547653 0.5565633 0
-0.0750694 0.1211086 0.2991175 0
0.2599761 0.1763701 0.2381502 0
0.1446497 0.1129396 0.3034638 0
-0.3138379 -0.0064988 0.4779080 0
-0.1601962 -0.0654724 0.5708663 0
-0.1379269 0.0087617 0.5185965 0
0.0231730 0.0196953 0.4235214 0
0.2536170 0.0698949 0.3721966 0
-0.0247726 -0.0380736 0.6775228 0
0.3031325 0.0832571 0.3419127 0
-0.1795232 -0.0573136 0.5626827 0
0.0979291 0.0502410 0.4122510 0
-0.0952706 -0.0475211 0.5885649 0
-0.2355631 -0.1518074 0.5974496 0
-0.2174135 -0.0875447 0.5684958 0
0.0438280 0.0036656 0.4446652 0
-0.2742266 0.0246689 0.5091495 0
-0.2588233 0.0270939 0.5158289 0
-0.2791481 0.0792045 0.4414968 0
-0.2123399 0.0637881 0.4854997 0
-0.1421709 -0.1421790 0.5863475 0
-0.2877629 0.0567365 0.4815266 0
-0.2824962 -0.0667118 0.5062176 0
-0.4213637 -0.0848771 0.6128920 0
0.3180042 -0.0515725 0.5350544 0
-0.3268020 0.0475808 0.4431583 0
0.0147945 0.0074718 0.4139239 0
0.5712433 -0.1116161 0.6190252 0
-0.2509081 -0.0029572 0.4999317 0
0.2277114 0.1431273 0.2771738 0
0.3038365 0.0434822 0.4055080 0
0.4116198 -0.0052164 0.4837781 0
0.4191649 -0.0813637 0.6070181 0
-0.2826951 0.0239135 0.4847529 0
-0.2928023 0.0200056 0.4952551 0
0.2380733 0.0982630 0.3623692 0
-0.1387914 -0.0433768 0.5594407 0
-0.2531852 0.0549234 0.3873844 0
-0.0019418 0.0319659 0.4020500 0
-0.2810214 -0.1766560 0.6122903 0
0.2626306 0.1226073 0.2947575 0
0.2741599 0.1524148 0.2735589 0
-0.3146564 0.0648452 0.4483999 0
-0.2353515 0.0804568 0.4996414 0
0.1102736 0.0161645 0.4345995 0
0.0643884 0.0675226 0.3557276 0
-0.1411510 -0.0443800 0.5679926 0
0.1542050 0.0468372 0.4012853 0
0.2020526 -0.0658284 0.5515562 0
0.5552869 -0.4398638 1.2535033 0
0.5368725 -0.1119038 0.6402583 0
-0.1873352 -0.1587466 0.6383053 0
0.1443807 -0.0458575 0.5105346 0
-0.4042875 0.0223515 0.4862982 0
-0.5699564 -0.1760405 0.7373816 0
-0.2857151 0.0555448 0.4773364 0
-0.0637573 -0.2145288 0.8263596 0
-0.0402768 -0.2239244 0.9134563 0
-0.2602527 0.0114273 0.5034049 0
0.2470596 0.0089144 0.4599007 0
-0.4344216 -0.0363428 0.5024270 0
-0.2713028 -0.2730771 0.6863094 0
-0.3548441 -0.1215504 0.5895695 0
0.5692289 -0.1470633 0.6871814 0
-0.0892408 -0.1080050 0.6238106 0
-0.4279581 -0.0515841 0.5838731 0
-0.1532712 -0.0121729 0.5449501 0
0.1375315 0.1502894 0.2986457 0
-0.1251159 -0.0670705 0.5536518 0
-0.2322164 -0.0539099 0.5020205 0
0.1563392 0.1646466 0.2636677 0
-0.0945566 0.0260517 0.3135364 0
0.2722262 0.1230676 0.3096828 0
-0.0706707 -0.0994040 0.6165259 0
0.3075732 0.0424056 0.4122016 0
0.0693176 0.1120560 0.3029309 0
-0.4097531 -0.3217783 0.8517727 0
-0.1192055 -0.0136431 0.5682853 0
0.4084842 -0.2235048 0.7673323 0
-0.2284780 0.1055310 0.2742043 0
0.1828467 0.1468990 0.2659284 0
-0.3004889 0.0479271 0.4756135 0
-0.2055039 -0.0072001 0.4163202 0
0.1088573 0.0154467 0.4341154 0
0.0464225 0.0015424 0.4472235 0
0.4340056 -0.2336448 0.8014686 0
0.4355417 -0.0863228 0.6223952 0
-0.0914015 0.1846158 0.4147757 0
-0.4101462 -0.1568752 0.6411166 0
-0.2933851 -0.1717956 0.5821528 0
0.4672573 -0.1677349 0.7093405 0
0.0451202 -0.1226265 0.8034017 0
0.6180508 -0.0895940 0.6335497 0
0.1530329 0.1624407 0.2587132 0
-0.2392649 -0.0259190 0.4889477 0
0.4465027 0.0212933 0.4554235 0
0.2533498 -0.0669660 0.5576024 0
-0.2859358 0.0212652 0.4676745 0
-0.3311061 -0.0375659 0.5527181 0
-0.0554758 -0.0145813 0.6449319 0
0.4416734 -0.2261642 0.7904885 0
-0.3274506 0.0385911 0.4244837 0
-0.0908903 -0.1097758 0.6281456 0
-0.2457916 -0.1644097 0.6262288 0
-0.1404693 0.1129596 0.2756568 0
-0.1439262 0.1137374 0.2850030 0
0.4225826 -0.0817685 0.6033672 0
0.2642577 0.1230050 0.2968298 0
-0.2982050 -0.0926106 0.5411326 0
-0.0216075 -0.0245763 0.5115024 0
-0.2851301 -0.0988473 0.5461373 0
-0.3232087 0.0779216 0.4636585 0
-0.3929271 -0.0253234 0.5212034 0
0.0733737 -0.2314788 1.0103915 0
0.2537501 0.1146635 0.3334424 0
0.1397990 0.1499811 0.3019719 0
-0.1620943 0.0795104 0.3241828 0
0.1089907 -0.0253680 0.4846234 0
-0.0938012 0.1215179 0.2686040 0
0.2480178 0.1157371 0.3447255 0
0.2551894 0.0694559 0.3731031 0
0.0580824 -0.2227209 0.9944667 0
0.4730200 -0.2179445 0.7847750 0
0.2548832 -0.1091341 0.6169081 0
0.5459252 -0.0780978 0.5941049 0
0.0770350 -0.0629026 0.5630555 0
-0.1913005 0.0374365 0.4964201 0
-0.1106418 -0.0645581 0.5866433 0
-0.3545890 0.0157217 0.4694460 0
-0.0646953 -0.0267924 0.5986014 0
0.1438381 0.1484810 0.3002611 0
-0.1389420 -0.0816506 0.5835281 0
-0.1563570 -0.0856136 0.6046109 0
0.1484069 0.0507710 0.3863698 0
0.2948408 -0.0896417 0.5890916 0
-0.1929038 0.0683116 0.3325298 0
0.0886005 0.0801181 0.3530801 0
-0.3627054 -0.1836478 0.6023344 0
0.5183222 -0.0370070 0.5689933 0
0.2554000 -0.1103955 0.6208438 0
0.2669927 -0.0955769 0.5974657 0
0.1437666 0.1131194 0.2994184 0
-0.3776281 0.0480081 0.4784032 0
0.1840481 0.1485407 0.2694285 0
0.5445883 -0.1713234 0.7212825 0
-0.3684448 -0.1431605 0.6162591 0
0.0537319 0.0825807 0.3801035 0
0.4275286 -0.0993118 0.6442174 0
-0.2439628 -0.0605158 0.5182102 0
0.2237984 0.1428760 0.2740228 0
-0.2063427 -0.1221683 0.5970898 0
-0.3642851 -0.0026493 0.4900776 0
-0.2178563 -0.0881447 0.5648372 0
-0.3320891 -0.0621528 0.5412102 0
0.1961508 0.0431660 0.4018992 0
-0.1878770 0.1155326 0.2707569 0
-0.3728279 -0.0084212 0.4846947 0
-0.2990340 -0.0563928 0.4851805 0
0.1121760 -0.0263450 0.4878199 0
-0.1784579 -0.1489502 0.6069890 0
0.3060703 -0.0197656 0.4960529 0
-0.0895682 -0.1074650 0.6018191 0
-0.4056835 0.0226625 0.4908386 0
-0.2178513 0.0410257 0.5094374 0
0.1964236 -0.0402878 0.5130767 0
0.4147136 -0.1677210 0.7063576 0
0.0459150 -0.0947911 0.7749697 0
-0.2619005 -0.0197865 0.4817528 0
0.2145788 0.1622725 0.2627161 0
0.5188339 -0.0360819 0.5729844 0
0.3096640 0.1501571 0.2810360 0
-0.3125164 -0.0953833 0.5402796 0
0.2323821 0.0536626 0.3971032 0
-0.0767948 -0.0188044 0.5884597 0
-0.1173666 -0.1280170 0.6372004 0
-0.2102126 -0.2359516 0.6198016 0
-0.1155609 -0.1488032 0.5955170 0
-0.1601389 -0.0308134 0.5240608 0
-0.2527511 -0.0772239 0.5240977 0
-0.3220828 0.0479999 0.4381305 0
-0.2431481 -0.0009806 0.4917948 0
0.0474680 0.0834759 0.3775379 0
0.0706103 -0.0270985 0.4927870 0
-0.0580326 -0.0583298 0.6204739 0
-0.0968319 0.1207104 0.2778210 0
-0.2648798 -0.0785481 0.5220992 0
0.3134442 -0.0209472 0.4987845 0
-0.4943393 -0.0824680 0.6834551 0
-0.0936014 -0.1144057 0.6423730 0
0.0095089 -0.0043409 0.4470755 0
-0.2403601 -0.1313417 0.6329422 0
-0.1204729 -0.0863259 0.5699638 0
-0.1458675 -0.0836493 0.5505875 0
0.0733800 -0.0247028 0.4877779 0
-0.1380624 -0.1368301 0.5717825 0
-0.1770120 -0.0311855 0.5190704 0
0.1429284 -0.0361840 0.5037078 0
-0.0393143 0.1519020 0.2527956 0
-0.0977251 0.1215646 0.2821536 0
-0.1159308 0.0193961 0.5508747 0
-0.1985482 -0.0606660 0.5461166 0
0.1981062 0.0708865 0.3679677 0
0.5377505 -0.0189969 0.5429809 0
0.0717459 -0.0241632 0.4852296 0
-0.2651085 -0.2660479 0.6721193 0
0.0461137 0.0843344 0.3745562 0
-0.3780948 0.0028928 0.6096660 0
0.1388231 0.0765183 0.3564961 0
0.1563817 0.1644080 0.2619926 0
0.2996380 0.0015932 0.4654615 0
0.0243428 0.1482134 0.2631832 0
0.0489437 0.1507599 0.2347257 0
-0.3416350 0.0482079 0.4289250 0
-0.2389567 0.0043055 0.3431985 0
-0.0700796 0.0562864 0.3635129 0
0.4268721 0.0320727 0.4411513 0
0.0643890 -0.0045722 0.4563733 0
0.0860327 0.1034715 0.3177514 0
0.0840379 -0.0713876 0.6239027 0
0.4127127 -0.2041473 0.7280529 0
0.0708707 -0.0243247 0.4859889 0
0.0356528 -0.0108434 0.4719165 0
0.1150551 0.0898348 0.3321849 0
-0.1104426 -0.0610592 0.5728161 0
0.1489007 -0.0484831 0.5207705 0
-0.1086096 -0.0288742 0.5738596 0
0.0349538 0.0268715 0.4128543 0
0.0240080 0.1475182 0.2600540 0
-0.2282166 -0.0515848 0.4970767 0
-0.2617454 0.0093688 0.5027627 0
-0.1815609 0.0470690 0.4111786 0
-0.2955401 0.0392409 0.4791161 0
-0.2715163 -0.0253526 0.4988368 0
0.0894473 0.0788426 0.3539489 0
0.2381254 0.2074640 0.2025094 0
0.1136843 0.0886194 0.3367622 0
0.1215618 0.0647058 0.3786493 0
0.2454830 0.1172402 0.3196408 0
-0.4517033 -0.0253240 0.4748684 0
0.0286616 0.1803638 0.2020566 0
0.0559009 0.1698199 0.2301540 0
-0.1755370 -0.2136027 0.6705835 0
0.1928190 0.1716027 0.2402262 0
0.2080466 0.1605081 0.2522952 0
0.1499712 0.0340759 0.4488215 0
0.2542896 0.0702881 0.3713803 0
-0.3472360 0.0608224 0.4648810 0
-0.2101165 -0.0767397 0.5130435 0
0.5338967 -0.0191624 0.5426053 0
0.0299891 0.1825646 0.2123182 0
0.1979832 0.0710793 0.3686259 0
-0.0692729 0.1164679 0.3000138 0
0.5347202 -0.1686277 0.7123023 0
-0.3266565 -0.0223799 0.4895579 0
-0.3645077 0.0163001 0.4849925 0
0.1513799 0.1623002 0.2541305 0
0.1464488 0.1592926 0.2326237 0
-0.4137340 -0.2119575 0.6563441 0
-0.2942800 -0.0311369 0.4827080 0
-0.1622019 -0.0633584 0.5692474 0
-0.1988000 0.0455465 0.4614710 0
0.2578126 0.1757144 0.2512713 0
-0.2385019 0.0177882 0.5341886 0
0.2850077 0.1664496 0.2502058 0
0.2406252 0.1681121 0.2314561 0
0.5676641 -0.0262057 0.5830290 0
0.4030614 -0.1908195 0.7383954 0
-0.5252421 -0.2360962 0.7696291 0
0.0570154 0.1677971 0.2302892 0
-0.2821397 0.0852493 0.3940839 0
-0.2920485 -0.1762010 0.6195560 0
0.2742409 0.1635839 0.2411693 0
-0.5955213 -0.1880174 0.7731999 0
0.5362328 -0.0867742 0.6082550 0
-0.2779781 -0.0975225 0.5349936 0
0.2455961 0.1150279 0.3531075 0
-0.3070037 0.0644364 0.4345765 0
0.6332591 -0.1417404 0.7491423 0
0.1481088 0.1144346 0.3146156 0
-0.0704889 -0.1007119 0.6197578 0
0.1282100 0.1471396 0.2755904 0
0.2006143 0.0705788 0.3713791 0
-0.0987708 0.1223233 0.2845860 0
-0.1947320 -0.1760568 0.6271487 0
-0.0223129 0.0500403 0.3731045 0
-0.2101003 -0.0547336 0.4753332 0
0.1871912 0.1691429 0.2315602 0
0.2747822 0.1945103 0.2312497 0
0.2498852 0.0709487 0.3636934 0
-0.0664105 0.0791068 0.3370711 0
0.0063574 0.1911116 0.1890108 0
-0.3738036 -0.0114354 0.4890087 0
-0.1516155 -0.1539720 0.6222926 0
-0.1850768 -0.1098083 0.5733601 0
-0.3057387 -0.1295644 0.5737174 0
0.0301191 0.1827383 0.2133472 0
0.1538349 0.0330146 0.4531433 0
-0.0611424 0.1549334 0.2090365 0
-0.1178317 0.1394534 0.2489846 0
0.4854971 0.0245244 0.4688810 0
0.0560970 0.1687063 0.2262554 0
0.2646329 0.2423375 0.1906874 0
0.1213144 0.1865232 0.2334160 0
-0.0158542 0.2051335 0.1760421 0
-0.0349230 0.1430665 0.2305878 0
0.3213750 0.0968484 0.3134622 0
-0.0680334 0.1605094 0.2234895 0
-0.3010660 -0.1205554 0.5545526 0
-0.2286613 -0.0499848 0.5026644 0
-0.2711640 -0.0036423 0.5038620 0
-0.0262546 0.2074472 0.1626757 0
0.2028460 0.1347832 0.2800771 0
0.1884264 0.1487438 0.3005023 0
0.1186308 0.1841772 0.2268763 0
-0.0154451 0.2012063 0.1684623 0
0.2726439 0.1697507 0.2474829 0
0.0006352 -0.0830547 0.7160614 0
-0.4535633 -0.2061356 0.6752973 0
-0.2991964 0.0582493 0.4813973 0
-0.2177540 -0.1333729 0.5890204 0
-0.2655929 -0.0406603 0.4853032 0
0.2605062 0.2403495 0.1860330 0
0.4194002 0.0350823 0.5493629 0
0.2772760 0.0585398 0.3770685 0
0.2613597 0.1658727 0.2360069 0
0.0383253 0.1773284 0.2143273 0
-0.0532622 -0.0829685 0.5922745 0
-0.4360490 -0.0665905 0.5564593 0
-0.1065769 -0.0757389 0.5758778 0
-0.0265741 0.0809582 0.3379285 0
0.2314464 0.0604008 0.3803445 0
0.3740678 -0.7358709 2.6112940 0
-0.2093447 -0.0442718 0.4982806 0
-0.1815021 -0.1066763 0.5695822 0
-0.2206910 -0.1362667 0.5944265 0
0.2622270 0.2421974 0.1885535 0
0.2419107 0.1157959 0.3377516 0
-0.0675557 0.1604214 0.2215641 0
-0.0976660 0.1771685 0.1913458 0
-0.1447342 0.1996253 0.1703815 0
-0.1104727 0.1836300 0.1858446 0
-0.0157542 0.2039922 0.1760562 0
0.4070351 0.0379022 0.5284728 0
-0.0541470 -0.0865808 0.6042610 0
-0.3147928 -0.1167688 0.5505487 0
0.2380921 0.1832120 0.2127807 0
0.0016450 0.0902307 0.3242633 0
0.2924516 0.2042768 0.2434775 0
-0.0496915 -0.0404987 0.6039839 0
-0.1861567 -0.0252039 0.5371246 0
0.2015446 0.2094338 0.1842098 0
-0.0677779 0.1604981 0.2223185 0
-0.2099579 -0.0457321 0.4927898 0
0.3273047 0.1548912 0.2988733 0
-0.3109717 0.0283799 0.4336909 0
0.4639621 -0.0050542 0.4725887 0
-0.2679712 -0.0647040 0.4520781 0
-0.1434509 0.0564015 0.2940173 0
0.4722877 0.0264122 0.7509155 0
0.0465582 0.0089166 0.5290136 0
0.4321779 -1.0561086 2.7104607 0
-0.0478443 0.0338268 0.4100173 0
0.0222459 0.0194526 0.4218990 0
-0.1242236 0.1393649 0.2500170 0
-0.3739882 0.0400922 0.4696980 0
-0.2964640 0.0404659 0.4425808 0
0.2774423 -0.1599216 0.6881048 0
0.3384796 0.0282048 0.4357906 0
-0.0191283 0.1358595 0.2502322 0
0.1532316 0.1626829 0.2461760 0
1.2724066 -0.6166117 1.6751789 0
0.2606652 0.1911450 0.2387372 0
-0.0633466 0.1587427 0.2237668 0
0.2966323 -1.0926075 3.0293078 0
0.2057795 -0.0133790 0.4818722 0
-0.0900871 -1.1373829 3.2362938 0
0.3043082 -1.0971264 3.0307627 0
0.9715228 -0.0857578 1.2595376 0
0.1846868 0.0478825 0.3916428 0
0.1087879 -1.1938332 3.2458165 0
0.2275962 0.0295116 0.4188115 0
0.3099914 -1.1266479 3.1135650 0
0.0891985 -1.2250311 3.3248098 0
0.2045815 -0.0121943 0.4784060 0
-0.1083950 -0.0780742 0.5799421 0
-0.2182152 0.0020816 0.4869773 0
-0.2703182 -0.0932121 0.5225912 0
0.1857342 0.1007286 0.3280407 0
0.3800382 -0.1211104 0.6421702 0
-0.0717292 0.1629902 0.2273889 0
0.5096583 -0.1754959 0.7273571 0
0.0103871 0.1719103 0.2100762 0
0.5348199 -0.0437183 0.5767555 0
0.2182319 0.1425443 0.2679433 0
0.4192372 0.0570558 0.4017250 0
-0.0478495 0.1557221 0.2800296 0
-0.0704122 0.1608950 0.2204711 0
0.0666762 0.1636730 0.2371232 0
0.0365191 0.1415118 0.2610407 0
-0.0383805 0.1485661 0.2475155 0
-0.2396454 -0.0177071 0.4931885 0
0.3505366 0.1594528 0.3219502 0
-0.0307501 0.1408529 0.2223794 0
-0.1290006 0.1934362 0.1872607 0
-0.0382188 -0.1169398 0.7147760 0
0.4272493 -0.0855004 0.6201121 0
0.0024125 -0.2374269 1.0152903 0
0.3046513 -0.0195671 0.4979743 0
-0.0138173 0.1567174 0.2360043 0
0.0177305 0.0927454 0.3231955 0
0.0412015 0.0321851 0.3836467 0
-0.0927099 -0.0714016 0.4209170 0
0.0125337 0.1341336 0.2447649 0
-0.1160697 0.1880394 0.2011117 0
-0.2260838 0.0025052 0.4968984 0
-0.2691783 0.0693435 0.4066137 0
0.1960070 0.1552560 0.2374548 0
0.1422652 0.0771727 0.3567711 0
0.0234108 0.1322857 0.2757524 0
-0.0404443 -0.1626810 0.7265332 0
0.0903782 -0.1478981 0.8496962 0
-0.0697675 -0.0347442 0.5912096 0
0.1918889 0.0339094 0.4074884 0
-0.2105687 0.1040400 0.2860379 0
-0.0304125 0.1051647 0.3202550 0
0.0793094 0.1455753 0.2579289 0
-0.3444925 0.0534532 0.4538893 0
-0.2409582 0.0044852 0.4983550 0
0.0801879 0.1463546 0.2636711 0
-0.0302479 0.1050706 0.3133141 0
-0.1024635 0.1233311 0.3065754 0
-0.1217248 0.0653496 0.3528396 0
-0.1608930 -0.0068890 0.5438627 0
-0.1873256 -0.0258567 0.5360997 0
-0.1107095 -0.0234527 0.6011912 0
0.0792176 0.1454124 0.2587550 0
-0.0297194 0.1051942 0.3077450 0
-0.1347406 -0.0310081 0.6541401 0
-0.1182776 -0.0136233 0.5655866 0
-0.2457568 0.0442944 0.5082096 0
-0.3942364 -0.1012160 0.5929057 0
0.0465172 0.0240097 0.4220227 0
-0.0472082 0.1181361 0.2925529 0
-0.0127707 0.1838523 0.2023093 0
0.4301162 0.0548432 0.4166363 0
0.6696926 -1.1426216 2.8543258 0
-0.1699426 0.0070452 0.5594671 0
-0.0994101 -0.0664583 0.6130251 0
-0.0128324 0.1839565 0.2051582 0
-0.2261839 0.0414660 0.4897647 0
-0.2599941 0.0431729 0.5250986 0
-0.2619383 0.0426582 0.4629252 0
-0.0024156 0.1870679 0.1824782 0
-0.1560771 0.0135930 0.5201063 0
-0.2006678 0.0753192 0.3244383 0
-0.1024679 -0.0112145 0.5269450 0
-0.1389010 -0.0443092 0.5597261 0
-0.0203314 0.1461118 0.1981944 0
-0.2385796 -0.0131443 0.4957734 0
-0.1921839 -0.0006663 0.5093573 0
-0.1761797 -0.0200799 0.5130158 0
-0.2626933 0.0436232 0.4555019 0
0.1065276 0.0150197 0.4277623 0
-0.1265179 0.0564261 0.3100073 0
-0.4210525 -0.2044480 0.6569500 0
0.2948380 0.1496238 0.2607217 0
0.2511213 0.1924267 0.2110071 0
0.0569254 0.1701322 0.2329418 0
-0.3124887 -0.1803378 0.5986590 0
0.0564049 0.1691269 0.2317771 0
0.4371127 -0.1298481 0.6516352 0
-0.1113570 -0.0628525 0.5901768 0
-0.2701887 -0.1653359 0.6097912 0
-0.4823016 -0.2235106 0.7157776 0
-0.0289257 0.0857691 0.2842598 0
0.0493586 0.0425991 0.3894682 0
0.2234637 0.0282777 0.4315728 0
0.2888178 0.0282498 0.4320334 0
0.2078440 0.0397646 0.4058780 0
0.1591194 -1.0258846 2.9563332 0
-0.2833650 -0.1633663 0.6172563 0
-0.1245636 -0.0280866 0.5622487 0
0.0201248 0.0958509 0.3536143 0
0.2186875 0.0284658 0.4224769 0
0.0180536 0.1371150 0.2630103 0
-0.0272149 0.0817479 0.3378240 0
-0.1550462 -0.0927042 0.5760606 0
-0.2268624 -0.0230908 0.4978403 0
0.0710834 0.0738316 0.3633448 0
-0.0163082 0.1361546 0.2453414 0
0.0059267 0.1234890 0.2723263 0
-0.0054247 0.0984113 0.3306105 0
0.4631004 -1.1184294 2.8637817 0
-0.0120845 -0.0263716 0.5143648 0
-0.1459145 -0.0485965 0.5767660 0
-0.0400706 0.1491875 0.2366649 0
-0.0881499 -0.1059382 0.6198965 0
-0.2316983 0.1060946 0.2813489 0
-0.2811966 -0.1610640 0.6102536 0
0.0801303 0.1546945 0.2411846 0
0.0196666 0.0961455 0.3569766 0
0.2269190 0.1375228 0.2761215 0
-0.0407334 -0.1010015 0.6524751 0
-0.1697916 -0.0108181 0.5662562 0
-0.2833730 -0.0715153 0.5133993 0
0.0198109 0.0958617 0.3561397 0
-0.0061386 0.0979242 0.3340470 0
-0.0412990 -0.1031178 0.6596681 0
-0.1840251 0.0064702 0.5101890 0
-0.0696386 -0.0993208 0.6072669 0
0.1891930 0.1467435 0.2561646 0
0.0157442 0.0204864 0.4240975 0
-0.2756649 -0.1723168 0.6046398 0
0.0815842 0.1558289 0.2463935 0
0.0759954 0.1318991 0.4931982 0
-0.0420671 -0.1315457 0.7666705 0
-0.2055246 -0.0423942 0.5212390 0
-0.2373127 -0.1584525 0.6038336 0
-0.3952731 -0.0402920 0.5359548 0
0.2699780 0.1347530 0.2872279 0
0.0072953 0.1214924 0.2500299 0
-0.3282912 0.0648100 0.4940982 0
-0.3955428 -0.0411329 0.5361099 0
0.1551662 0.1580743 0.2754595 0
-0.1711418 0.0390312 0.4258167 0
-0.0410798 0.1534115 0.2424472 0
-0.2999169 0.0539733 0.4964935 0
-0.0342600 -0.1042836 0.6657811 0
0.0032739 0.1343616 0.2039026 0
0.1107802 0.0136068 0.4454054 0
0.0650744 0.1616741 0.2294179 0
-0.0539550 -0.0872570 0.6043708 0
0.3008620 0.0012449 0.4669701 0
0.5481659 -0.4364696 1.2431786 0
0.1230240 0.0638620 0.3896321 0
0.2875767 0.0471532 0.4161703 0
1.1774021 -0.6905046 1.7979386 0
0.3935054 -0.2227784 0.8005259 0
0.3202193 -0.0253334 0.5077763 0
-0.0602403 0.1592160 0.2200147 0
-0.1737210 0.0017698 0.5170649 0
0.1697592 0.1638520 0.2361970 0
-0.3128334 -0.1782259 0.5949596 0
0.1924519 0.1007992 0.3249171 0
0.1187022 0.0558107 0.3069625 0
0.0042695 -0.2700502 1.1226943 0
-0.1353967 -0.1585376 0.6382019 0
0.1734533 0.1663009 0.2437481 0
-0.1101488 -0.0230547 0.5976616 0
-0.1480875 -0.0085128 0.5409129 0
-0.1173352 0.1248664 0.2675321 0
-0.2911663 0.0100644 0.4562869 0
0.0379599 0.1096644 0.3005815 0
0.0769744 0.1083296 0.3045366 0
-0.0214498 0.0217053 0.4179090 0
0.0370004 0.1419142 0.2632238 0
0.3646257 -0.0100528 0.4837860 0
0.1788581 0.1419045 0.3050154 0
-0.0881393 -1.1275822 3.2046309 0
0.1591244 0.1597793 0.2810124 0
0.0699358 0.1121761 0.3034805 0
0.0463545 0.0253829 0.4180749 0
0.4526425 -1.1108478 3.0780897 0
-0.0598299 -0.1746913 0.6959848 0
-0.2272835 -0.1177724 0.6043079 0
0.1948553 0.1541426 0.2436863 0
0.3054915 -1.1378274 3.1494060 0
-0.0847934 0.1148309 0.2673917 0
0.4655257 -1.1013986 2.8689883 0
0.2246701 0.1435492 0.2754743 0
-0.0622964 -0.1561306 0.6565979 0
0.0489120 0.1525539 0.2409250 0
0.2874535 0.1685821 0.2482440 0
-0.0573977 -0.1561159 0.6506564 0
0.1014490 -1.1669779 3.1711352 0
0.0237202 0.1468644 0.2542552 0
0.1584590 -1.0422438 3.0113707 0
0.4179108 -0.2270868 0.7807306 0
-0.0237010 0.1396685 0.2385646 0
0.0062542 -1.3357124 2.9724841 0
0.0455640 0.1536835 0.2353749 0
-0.1550337 -0.0952369 0.5707150 0
-0.0048658 0.1354911 0.2542094 0
0.2067010 -1.3187190 3.2730315 0
-0.0243283 0.1452855 0.2520734 0
-0.2485703 -0.0329555 0.4816753 0
-0.2299869 -0.0189312 0.4952818 0
0.2686661 0.1227407 0.3053366 0
-0.2753654 -0.0137936 0.4829086 0
-0.1948999 0.0001870 0.5106661 0
-0.2443049 -0.1572539 0.6128402 0
-0.3488041 -0.1912975 0.6651703 0
-0.0501833 0.0602338 0.3605027 0
0.0120379 -1.3016808 2.8834846 0
-0.1924873 -0.2401376 0.6625943 0
-0.2029129 -0.2174396 0.6160607 0
-0.1806824 -0.2377839 0.6767283 0
0.0187725 -1.3260903 2.9259987 0
0.2680007 0.0379952 0.4170513 0
0.1967573 0.0309118 0.4201562 0
-0.1522768 -0.2145613 0.6492444 0
0.0231501 -1.3048103 2.8748319 0
0.1929716 0.1449746 0.2606775 0
0.2215508 0.0192377 0.4306949 0
0.0523556 0.0839330 0.3707306 0
0.1419162 0.1150300 0.3098306 0
-0.2322654 -0.0027587 0.5013918 0
0.1134992 0.1415970 0.2767732 0
0.3824077 -0.2101566 0.7802286 0
0.2003003 -0.0449426 0.5242449 0
0.2292260 0.1799461 0.2258085 0
0.2768898 -0.1515662 0.6674259 0
0.5082721 -0.1331316 0.6725339 0
0.5511076 -0.1575571 0.7166814 0
-0.3840379 -1.4873561 3.1753900 0
0.0732183 0.0041467 0.4564449 0
0.2538351 0.1742411 0.2468995 0
0.1264618 -1.2555208 2.8565819 0
0.1186774 -1.2393433 2.7908278 0
2.9072089 -2.4784191 4.7568135 0
0.0686583 -1.3242972 2.6469898 0
0.4037958 -0.1156531 0.6370520 0
1.8180528 -2.1093578 3.6892147 0
0.0130004 0.1245329 0.2910693 0
-0.3968464 -1.5548619 3.3169024 0
-0.4186141 -1.6663947 3.5534103 0
-0.2509210 -0.1771274 0.5842328 0
0.0986886 0.1456593 0.2589601 0
-0.1533584 -0.2368521 0.7538070 0
0.1483552 0.1500465 0.3097681 0
-0.0742568 -0.1055680 0.6242331 0
0.0459519 0.1185687 0.2886511 0
-0.2865577 -0.0821734 0.5244325 0
0.3006274 0.0457245 0.4004515 0
0.2627175 0.1187416 0.3063968 0
0.0014063 0.0343833 0.4042592 0
-0.1241753 -0.0916194 0.5855384 0
-0.0927532 0.1753780 0.2722831 0
-0.0299324 0.0026593 0.4214354 0
0.2525315 0.1164093 0.3556460 0
0.0632470 0.0936553 0.3303359 0
0.0162241 0.0212431 0.4214134 0
0.0423975 0.1201427 0.2934681 0
0.4444643 -0.0971954 0.6608738 0
0.0225443 0.1328804 0.2755072 0
0.5801253 -0.1922884 0.7793498 0
-0.0984040 -0.0208649 0.5354425 0
0.2470916 0.1088367 0.3634269 0
-0.1096025 -0.1733934 0.5812508 0
0.0304665 0.1209286 0.2931485 0
0.1744652 -0.0002187 0.4626136 0
0.1106014 0.1392118 0.2648706 0
-0.1526426 -0.0436769 0.5504809 0
-0.2135140 -0.0749361 0.5478841 0
-0.2206030 -0.0480407 0.5052761 0
0.2839601 -0.1531401 0.6754862 0
0.0093558 0.1273180 0.2780419 0
0.0475620 0.1288690 0.2928244 0
-0.2887629 -0.0843456 0.5257117 0
0.2117208 0.1626603 0.2576442 0
0.6860917 -0.1651941 0.7959009 0
0.0387301 -0.0034514 0.4572597 0
0.1122049 0.0150763 0.4378481 0
0.0703063 0.1133533 0.3036303 0
0.2861776 -0.1547839 0.6811956 0
0.0387315 -0.0033068 0.4567491 0
-0.0294154 -0.0068121 0.4556605 0
0.2312085 0.1039181 0.3613304 0
0.0099596 0.0775424 0.3545400 0
0.0473315 0.1284695 0.2909527 0
0.2304155 0.0282911 0.4247799 0
-0.3443384 -0.1872459 0.6045564 0
0.1092143 0.1379086 0.2576405 0
-0.1060036 -0.0257133 0.5560097 0
-0.2540331 -0.0016896 0.5014303 0
0.4459998 -0.0938216 0.6456059 0
-0.2455543 0.0010792 0.4901892 0
0.3327162 -0.0303928 0.5146540 0
-0.0227219 -0.1968302 0.8758292 0
0.1528106 0.0499667 0.4014729 0
0.0112020 0.1267451 0.2720285 0
0.1546656 0.1158665 0.3311776 0
0.0681718 0.1126794 0.3055860 0
0.0289401 0.0712846 0.3545319 0
0.2664748 0.0669027 0.3754352 0
0.2541964 0.0021368 0.4548833 0
0.2096257 0.0401212 0.4116570 0
0.2799601 0.0359232 0.4342461 0
0.0707915 0.1124634 0.3055385 0
0.0582489 0.1365077 0.2540220 0
0.0447366 0.1138137 0.2354901 0
-0.0406094 0.1056227 0.3121165 0
0.0060258 -0.2624340 1.0978305 0
0.1690735 0.1375426 0.3210451 0
0.1359588 0.1746397 0.2342701 0
-0.1639324 -0.1503688 0.5790086 0
-0.0467211 -0.0215963 0.5074442 0
-0.1980088 -0.0128895 0.4846467 0
0.1843654 0.1497348 0.2712848 0
-0.3268271 -0.2236848 0.6642903 0
0.0004540 0.0588101 0.3666427 0
-0.1431371 -1.1437836 3.2730684 0
0.1481508 0.1127639 0.3116507 0
2.1675510 -2.3473086 4.1106119 0
-0.1344166 -1.0384554 2.9675345 0
-0.0851307 -0.0486266 0.6008871 0
-0.0658585 0.1580519 0.2133678 0
0.1544297 0.0490180 0.4080703 0
0.0723611 0.1398481 0.2635614 0
-0.0435895 -0.2942384 1.1491520 0
0.0947711 0.1433688 0.2658478 0
-0.0841764 0.0029354 0.4640308 0
-3.4581702 -1.9252499 3.9496274 0
-0.1748761 -0.0560619 0.5600682 0
0.4934033 -0.1482931 0.6579043 0
0.0554316 -0.2067616 0.9433299 0
-0.0019931 0.0689571 0.3590467 0
-0.2262215 -0.0486684 0.5121708 0
-0.0374966 -0.1202248 0.7304708 0
-0.3094493 -0.2123207 0.6352925 0
0.0965142 0.1448802 0.2742799 0
0.0834855 0.1245519 0.2879318 0
0.0886583 -0.0912870 0.6338050 0
-0.1241946 0.1394262 0.2510395 0
-0.3537715 -0.1779374 0.6346468 0
-0.2015038 -0.0138631 0.4062927 0
0.2042573 0.1353032 0.2823488 0
-0.3363116 -0.1837410 0.5967175 0
0.0164297 0.0763802 0.3496375 0
0.0592779 -0.2540399 1.1014823 0
-0.2741097 0.0158259 0.4779921 0
-0.1455097 -0.2169732 0.6611719 0
-0.0766537 -0.0406072 0.5680262 0
3.2671916 -2.5923960 4.5357175 0
0.0703598 -1.2543253 2.5041912 0
2.8201101 -2.2790360 4.2591052 0
-0.1610231 -0.1334590 0.5873063 0
0.3237327 0.0202657 0.4312567 0
-0.0098459 0.0901683 0.3252843 0
0.0337612 0.0232269 0.4176959 0
0.0830716 -1.2558715 2.4196479 0
0.2909303 0.0284626 0.4355880 0
2.5208488 -2.7552800 4.7729306 0
0.0118801 0.1298838 0.2756010 0
-0.0740801 0.1155657 0.3107406 0
0.1569092 -0.0402091 0.5296083 0
0.0002307 -1.3303056 3.1112828 0
0.2385902 0.0133093 0.4425733 0
0.4138514 -0.1659154 0.7021700 0
0.1234586 0.0131207 0.4396749 0
0.2228030 0.0633315 0.3716852 0
0.1378525 0.1313470 0.2922162 0
0.0432680 0.1186513 0.2782800 0
0.0349332 0.1173318 0.2941335 0
-0.0698703 0.1142449 0.3030071 0
0.0159231 0.1216115 0.2921269 0
0.1138606 0.1434315 0.2757876 0
0.1713081 0.1091829 0.3115727 0
-0.2010074 0.0056306 0.5033885 0
0.1157853 0.0709578 0.3596407 0
0.0709532 0.0714083 0.3959438 0
0.2033531 0.0698384 0.3726989 0
0.2797031 0.0064821 0.4533861 0
0.3666294 -0.0695009 0.6058630 0
0.1587593 0.0655627 0.3734482 0
0.0041714 -0.0037065 0.4553474 0
-0.1100745 -0.0804782 0.5991171 0
-0.2193143 -0.0064291 0.4946856 0
0.1307089 0.0856644 0.3356621 0
0.1262668 0.0773101 0.3536245 0
0.0852825 0.1045258 0.3127668 0
0.0364143 0.1429870 0.2658218 0
0.1436630 0.0402562 0.4239852 0
0.1003877 0.1180467 0.3012703 0
-0.0689124 -0.1707904 0.6089469 0
0.2139416 0.1386702 0.2958268 0
0.0828136 0.1229444 0.2877733 0
-0.0244287 -0.1959278 0.8792808 0
0.0050544 -0.0032549 0.4512595 0
0.0997973 0.1177996 0.2991305 0
-0.3655961 -0.0311025 0.6499117 0
0.1935432 0.1241511 0.3216510 0
-0.1908726 0.0033117 0.5008922 0
-0.0270493 -0.0973991 0.6613109 0
-0.1085050 -0.1772988 0.6392748 0
-0.2860260 -0.0477591 0.5094136 0
-0.1513415 -0.0505719 0.5873479 0
-0.1734315 -0.2235495 0.6506957 0
-0.0696195 0.0047305 0.4491018 0
-0.0470773 -0.0023562 0.4551587 0
-0.2864126 -0.0487814 0.5098984 0
0.0342360 0.0702158 0.3585718 0
0.0199235 -0.0180903 0.4800788 0
-0.0427328 0.0016445 0.4410130 0
-0.1571301 -0.2386766 0.7131333 0
-0.2166159 -0.0470221 0.5036643 0
-0.0191593 -0.1823065 0.8453255 0
-0.1083984 -0.1740129 0.6379738 0
-0.1966244 -0.0382915 0.5056507 0
-0.1749552 -0.0057252 0.4402580 0
-0.1685501 -0.1343305 0.6433328 0
-0.0247530 0.1431402 0.3676576 0
-0.4608940 -0.2261172 0.6994306 0
-0.1186298 0.0156546 0.4372515 0
-0.1116537 -0.0804344 0.5852872 0
-0.1476558 -0.0860979 0.5955620 0
0.2358433 0.0124273 0.4390295 0
0.0114210 0.0786436 0.3451992 0
0.0292791 -0.0107252 0.4649946 0
-0.0068682 -0.0043213 0.4556493 0
0.4447518 -0.0942189 0.6489542 0
-0.0508367 -0.1456798 0.6267558 0
-0.1430866 -0.0860435 0.5595871 0
-0.2086563 -0.2244028 0.6467881 0
0.0737432 -0.0063839 0.4615859 0
0.1460201 -0.0611695 0.5482032 0
-0.1630357 -1.1607885 3.2632205 0
0.0353210 0.0293104 0.4041522 0
-0.6668830 -2.0108891 4.2582731 0
-0.6627786 -1.9839883 4.2205219 0
3.1216083 -2.3132031 4.3571939 0
0.0109724 -1.2705293 3.0251284 0
-0.2115678 -0.2087851 0.6125022 0
0.0830311 -1.3222532 2.5386243 0
-0.1730467 -0.1210928 0.5607878 0
0.0615891 0.0878967 0.3161789 0
0.2355730 0.0506920 0.3993997 0
-0.0069637 -0.0045500 0.4560899 0
0.0580825 0.1126937 0.2995799 0
0.0246023 0.0213958 0.4180588 0
0.0983856 0.0048878 0.4439344 0
-0.3179765 -0.2747804 0.6643432 0
-0.2052482 -0.0446031 0.5108949 0
-0.2776568 -0.0131020 0.4871749 0
0.0378485 0.0681912 0.3635164 0
0.1508233 0.0964134 0.3197211 0
0.2056991 0.1423055 0.2926633 0
-0.3238908 -0.2814869 0.6729599 0
-0.0576078 0.0591029 0.3727503 0
0.2081672 0.0372940 0.4121269 0
-0.1766898 -0.0571015 0.5946840 0
-0.1637757 -0.0633411 0.5692582 0
0.0578013 0.0419404 0.4022357 0
0.0246104 0.0209486 0.4190263 0
0.1507504 0.1203355 0.2883836 0
0.0156945 0.1216806 0.2945753 0
-0.0556910 0.0594706 0.3691055 0
0.0637946 0.0934440 0.3341519 0
-2.2486210 -1.4084771 2.2986338 0
-0.0023975 0.0310438 0.4069545 0
0.2048667 0.1428801 0.2929235 0
0.0229238 0.1311066 0.2768451 0
-0.0563491 0.0594086 0.3692962 0
0.4377723 -0.1064750 0.6320183 0
0.4100505 -0.1650357 0.6984075 0
-0.0878817 -0.1809786 0.6846393 0
0.0184363 0.0157185 0.4379629 0
0.0505150 0.1160769 0.2595951 0
0.0434500 0.1162447 0.2678060 0
-0.0152424 0.0814999 0.3199700 0
0.3450536 -0.2060612 0.6352943 0
-0.3685229 -0.2573517 0.7102305 0
0.1538706 0.1607046 0.3407346 0
0.0115074 0.0782819 0.3467332 0
-0.1707231 -0.0674131 0.5822050 0
0.1488322 0.1125369 0.3136548 0
0.0114672 0.0785237 0.3465663 0
0.1011075 0.1112540 0.3170905 0
0.1811135 0.0996710 0.3196383 0
0.1556338 0.0627832 0.3746748 0
0.0606427 0.0601407 0.3771236 0
-0.1318093 -0.1489516 0.6306421 0
-0.2561908 -0.1374111 0.5941454 0
-0.1207306 -0.0725473 0.4894095 0
-0.0340865 -0.1147662 0.5736067 0
-0.2637936 -0.0941230 0.5318673 0
0.0480701 0.0838102 0.3748691 0
0.0712351 -0.0249343 0.4877526 0
0.3050584 -0.0203250 0.4943428 0
0.0158427 0.0768924 0.3482994 0
-0.2704777 -0.3041045 0.9442305 0
-0.2380335 -0.0157227 0.4914492 0
0.1382462 -1.3069198 3.1210482 0
0.1899583 0.1008480 0.3199030 0
0.2722489 0.0660850 0.3856972 0
-2.8592279 -1.8091494 2.8636801 0
3.7934055 -3.2713501 5.7108884 0
2.8827589 -2.2213855 4.1607957 0
-0.1612577 -0.1867195 0.6234039 0
0.1897933 -0.0078217 0.4726710 0
3.5754483 -2.7755377 4.9321160 0
0.1919728 0.0439837 0.3964011 0
-0.1318095 -0.0773031 0.5586485 0
0.3273605 -0.0351363 0.4543690 0
0.1700005 0.1379641 0.3230237 0
0.2968220 -0.0925410 0.5945758 0
0.1420346 0.0750934 0.3589934 0
0.1481578 0.1140709 0.3067808 0
0.1741239 0.1395216 0.3322938 0
-0.3135486 -0.1808370 0.5966229 0
-0.0243236 0.0998487 0.3161542 0
0.0093413 0.1275729 0.2775129 0
-0.1416409 -0.2275836 0.7103397 0
0.1166336 0.0914056 0.3342362 0
-0.1960645 -0.0750853 0.5686678 0
0.1481549 0.0508940 0.3965350 0
0.0634677 0.0934707 0.3241596 0
0.0303908 0.1219651 0.2672289 0
-0.0982377 -0.0681304 0.5558380 0
0.4292296 -0.0939842 0.6461532 0
0.2409881 0.1011879 0.3745514 0
-0.3182598 -0.2142429 0.6579835 0
-0.3079244 -0.1781125 0.5899886 0
0.0316722 0.0709441 0.3582689 0
0.2229924 0.0698476 0.3650983 0
-0.1863118 -0.0358550 0.5134674 0
0.0859431 0.0638137 0.4039179 0
0.1690002 0.1374587 0.3212541 0
-0.0064941 0.0874142 0.3366094 0
0.2227505 0.0834396 0.3493094 0
0.3644184 -1.0095124 2.0742474 0
0.2725648 0.0372244 0.4236564 0
0.1476503 0.0352162 0.4457237 0
0.2597882 0.0552761 0.3929642 0
4.3165150 -2.8757019 5.0675950 0
-0.0061162 0.0861804 0.3220189 0
-0.0053321 0.0859597 0.3209551 0
-0.2099864 -0.0167954 0.5002329 0
0.7076654 -1.6052061 2.8844867 0
0.6586563 -1.4663274 2.6680474 0
0.1435300 0.1161090 0.3130114 0
3.1839371 -2.0872235 2.9571970 0
0.1967615 0.0422674 0.4067020 0
0.1568138 0.0628444 0.3762744 0
0.2356042 -1.4745337 2.4139719 0
0.1127903 0.0877745 0.3390535 0
0.2030973 0.0695743 0.3739789 0
0.0989418 0.0955853 0.3277722 0
0.1429499 0.0773511 0.3570629 0
-0.7491838 -1.7168810 3.2048647 0
0.1959615 0.0428532 0.4048375 0
1.1062040 0.0158022 1.2573678 0
0.1428002 0.0770418 0.3571992 0
-0.2638324 -0.2644293 0.6689453 0
0.1524131 0.0839171 0.3428058 0
0.1445770 0.0103527 0.5347992 0
0.0690485 0.0764131 0.3790024 0
0.0570652 0.0596279 0.3720575 0
0.0468913 0.0330445 0.4162577 0
0.1895278 0.1010931 0.3341379 0
0.2089451 0.0320606 0.4336491 0
0.1751685 0.0780539 0.3681067 0
0.6764674 -0.2160721 0.9656274 0
0.1224724 0.0561965 0.3974289 0
0.0967428 0.0509611 0.4044350 0
0.1476257 0.1182451 0.2976949 0
0.1736685 0.1399309 0.3303165 0
0.0339667 0.0721231 0.3517666 0
0.2904267 -0.0334190 0.6066172 0
0.0777385 0.1076366 0.3094129 0
0.2095020 0.1050145 0.3363476 0
0.0765036 -0.0105232 0.4576950 0
0.1414950 0.1125837 0.3018954 0
0.0782805 0.1083987 0.3058165 0
-0.0679332 -0.0982991 0.6149417 0
0.0726178 0.0963910 0.3054914 0
0.0513919 0.0816769 0.3200994 0
0.0678669 0.0464454 0.4546665 0
-0.0922994 -0.1330670 0.6857834 0
0.1967124 0.1268815 0.3268411 0
0.0720207 -0.0253768 0.4868687 0
0.1208401 0.1259526 0.2828884 0
0.0528663 0.0471623 0.3636503 0
0.1429751 0.1161630 0.3111605 0
0.1121959 0.0149541 0.4372991 0
0.1540275 0.1141142 0.2869183 0
0.0852130 0.0574983 0.4267161 0
0.1851979 0.0547492 0.3592696 0
0.1472254 0.0934422 0.3364449 0
0.3092316 0.0450330 0.4118186 0
0.3067078 -0.0007173 0.4754204 0
0.2007872 0.0533992 0.3420185 0
0.0348052 0.0859294 0.3156981 0
0.1445767 0.1149769 0.3201959 0
0.0470834 0.0244690 0.4166339 0
0.0705441 -0.0276277 0.4905714 0
-0.0659659 -0.0745293 0.4270562 0
0.0913227 0.1135735 0.2205575 0
0.0650464 0.0406792 0.5044988 0
0.0657353 0.0599572 0.4366368 0
0.1361755 0.0784240 0.3515015 0
0.0474519 0.1169860 0.2965593 0
0.1230189 0.0968182 0.2828252 0
0.1082082 0.0392900 0.3825530 0
0.0802001 0.0699843 0.3705176 0
-0.0997512 -0.2608623 0.9627978 0
0.1134224 0.0907383 0.3279805 0
0.0858410 0.0709768 0.3792850 0
0.0974803 0.0576134 0.3847428 0
0.0956541 0.1143105 0.2991872 0
0.0102083 0.0208209 0.4205683 0
0.1123679 0.1045095 0.3189485 0
-0.1275852 -0.1799960 0.7767224 0
0.1187472 0.1174114 0.2690091 0
0.0311732 0.0192990 0.4269992 0
0.1110723 0.0143263 0.4371980 0
0.0712637 0.1119416 0.3010279 0
-0.0615034 0.0668647 0.5287550 0
-0.0021212 0.0849156 0.4130375 0
0.0234767 0.0802135 0.3338712 0
0.0223172 0.0561023 0.4003159 0
0.2893955 -0.2085755 0.6407130 0
0.1412368 0.0775187 0.3553233 0
0.1572297 0.0732031 0.3642546 0
0.0858048 0.1046779 0.3129658 0
0.4365662 -0.2522078 0.8310041 0
0.1056947 0.1139220 0.3027898 0
-0.2643937 -0.2504089 0.6734709 0
0.0054592 -0.0180424 0.4647413 0
-0.2369267 -0.1566592 0.6555936 0
0.0663136 -0.0045741 0.4566345 0
0.1240108 0.0129774 0.4406235 0
0.0721929 -1.2073961 2.4389329 0
0.2207014 0.0765301 0.3229603 0
0.1427212 0.0242224 0.4357469 0
0.1566029 0.0961976 0.3353844 0
0.0878238 0.1033287 0.3168337 0
0.0859475 0.1045274 0.3126871 0
0.1878688 0.0452022 0.4015711 0
0.0097077 0.0891372 0.3369421 0
-0.5177435 -0.5399899 1.0805405 0
0.0857669 0.0990011 0.2331347 0
1.3835564 -1.8854007 3.2850688 0
0.1256863 0.0998860 0.3250197 0
0.0547553 0.0699155 0.3740752 0
0.4853674 -1.7550631 3.0901070 0
0.0607798 0.1088373 0.3055033 0
-0.0036823 0.0682392 0.3729264 0
0.0110278 -0.0416018 0.5241014 0
0.1604517 0.0167867 0.4485125 0
0.0027742 0.0340247 0.4009167 0
-0.0346383 -0.1003446 0.6372902 0
0.1760836 0.0973391 0.2950532 0
0.0668790 0.0916006 0.2880084 0
0.2340846 -0.0234531 0.4677071 0
0.0960465 0.1066167 0.3859127 0
-0.1813661 -0.1811151 0.5673374 0
-0.1457126 -0.1658010 0.6566851 0
0.3755200 -0.3643382 0.8434069 0
-0.0268080 -0.0383653 0.4741782 0
0.1490443 0.1125047 0.3141574 0
0.0745712 0.1144724 0.2869788 0
0.1891920 0.0020156 0.4699908 0
0.1430202 0.1233858 0.2928775 0
0.2382465 0.1013941 0.3708452 0
0.0934091 0.0234688 0.4885346 0
0.2083076 -0.0147281 0.4866236 0
0.0477046 0.1069861 0.3092561 0
0.0593409 0.1015015 0.2676356 0
0.1381680 0.0791446 0.3513463 0
0.0567123 0.1170448 0.2933956 0
0.1480133 0.1256193 0.3153534 0
0.4146266 -0.0987272 0.7395430 0
0.2472663 0.0618544 0.3867033 0
-0.0885045 0.0749785 0.5291688 0
0.0467218 0.0409244 0.3798974 0
0.1988063 0.0521058 0.3985702 0
-0.0087754 -0.2217461 0.6460678 0
0.2488941 0.0582622 0.3924104 0
0.1437421 0.0570362 0.3798132 0
0.1213231 0.1261511 0.2853627 0
0.1341347 0.1204831 0.2970255 0
0.0454950 -0.2443953 0.6507587 0
0.1338722 0.1135864 0.3170165 0
0.1476264 0.1149627 0.3039015 0
0.4449905 -0.2981974 0.6590624 0
0.1329306 0.0853884 0.3444969 0
0.3737484 0.1129047 0.8529900 0
0.0874429 0.1034111 0.3177969 0
0.1505168 0.0206540 0.4407700 0
-0.2252148 -0.1457949 0.6105083 0
0.1332052 0.0851388 0.3464090 0
0.4379185 -0.2476801 0.8280783 0
0.2899965 0.0578137 0.3945577 0
0.1645091 0.1062099 0.3212660 0
0.1949542 0.1010603 0.3283668 0
0.0577495 0.0424833 0.3959827 0
0.0243587 0.0679250 0.3576136 0
0.5435265 -0.1529598 0.7188823 0
0.1503749 0.0206352 0.4407172 0
0.1137560 0.1107528 0.3105343 0
0.1591809 0.0647959 0.3751321 0
-0.1737140 -0.1003257 0.5764998 0
0.2953212 0.0558889 0.3992582 0
0.1650541 0.1066676 0.3218144 0
0.2612633 0.0552078 0.3942882 0
0.1203508 0.0657351 0.3657726 0
0.1158275 0.0828348 0.3642157 0
0.8072860 -1.3434540 2.5270319 0
0.5210846 -0.1419952 0.6857400 0
0.1120231 0.1107843 0.3078261 0
0.1865235 0.1343810 0.3354139 0
0.2656245 0.0675654 0.3852013 0
0.2415572 -0.0180174 0.7151141 0
-0.1174368 -0.1423638 0.5434973 0
0.2558442 0.1064770 0.4714231 0
-0.0069167 -0.0245472 0.4767922 0
0.0017588 -0.0290920 0.4777469 0
0.0965836 0.0527509 0.4004248 0
-0.1797499 -0.1425033 0.5844246 0
-0.1364177 -0.2034167 0.6307465 0
0.3141817 -0.0207199 0.5001009 0
0.5287530 -1.7577517 3.1556263 0
-0.2974977 -0.2004191 0.6265846 0
0.1927457 0.0849812 0.3501379 0
-0.0528071 -1.5743074 2.4513965 0
0.1258618 0.0446990 0.4324871 0
0.2078857 0.1267591 0.3375987 0
0.1653107 0.1070139 0.3205614 0
-0.0133483 0.0891461 0.3281710 0
0.1076157 0.0163038 0.4339061 0
-0.0795758 -0.0907089 0.4604392 0
-0.2416134 -0.2415081 0.6374773 0
0.0682774 0.0981548 0.3191977 0
0.2538007 0.0361726 0.4235112 0
0.3200634 -0.9305882 1.8260067 0
-0.0137612 -0.0232747 0.4547355 0
0.0860364 0.1035202 0.3186111 0
0.1980513 0.0531745 0.3943447 0
0.0377457 0.1219496 0.2858753 0
0.0507176 0.1215083 0.2883396 0
0.1716684 0.1372601 0.3260547 0
0.0966376 0.0512257 0.4061497 0
-0.2388513 -0.2684348 0.6511692 0
0.1177748 0.1050560 0.3214199 0
0.1090552 0.1125083 0.3085305 0
0.1469518 0.1116722 0.3167460 0
0.1575646 0.1222485 0.3022588 0
0.0538636 0.1239812 0.2883300 0
0.0566281 0.1228318 0.2878058 0
-0.0136386 0.0391669 0.3925133 0
0.2264623 0.1205417 0.3561463 0
0.2141491 0.0926379 0.3417603 0
0.1137508 0.1068248 0.3152539 0
-0.1749644 -0.1056698 0.5177823 0
-0.2282018 -0.2564458 0.6812128 0
0.2093987 0.1230598 0.3624066 0
0.0039678 0.0879855 0.3254128 0
0.0844255 0.1049154 0.3115599 0
0.1855398 0.0364429 0.4092992 0
0.1001157 0.1181988 0.2996200 0
0.0230442 0.0601662 0.3637182 0
0.0965312 0.0513863 0.4030271 0
0.2725426 0.0674993 0.3853158 0
0.0780736 0.0133412 0.3147513 0
0.2863415 0.0475083 0.4102394 0
0.1431396 0.1278783 0.2988892 0
-0.1760908 -0.1407517 0.5780598 0
-0.1157239 -0.0584288 0.4747765 0
0.2505618 0.1097047 0.3689821 0
0.2409226 -1.0447453 1.7090890 0
0.1169820 0.0914829 0.3341205 0
0.1422842 0.0786026 0.3522789 0
0.0190788 0.0213073 0.4180621 0
0.0523637 0.0679433 0.3633496 0
-0.1422319 -0.1121721 0.6355475 0
0.0495855 0.0997735 0.3135015 0
0.0239350 0.0182566 0.4246142 0
0.0872100 0.1031993 0.3165472 0
0.2064661 0.0181041 0.3137551 0
0.1480359 0.1146109 0.3057043 0
0.7236922 -0.5359722 1.2684933 0
-0.0190908 -0.1294007 0.6707728 0
0.2070539 0.0312285 0.4364305 0
0.2552002 0.0721497 0.3706890 0
-0.0880098 -0.1943539 0.7222217 0
0.2071930 0.1272778 0.3365813 0
0.1131253 0.0399533 0.4145791 0
-0.0584618 0.0042344 0.4236878 0
0.0206839 0.0234011 0.4139860 0
0.5191669 -0.3520246 0.9960545 0
0.0258626 0.0818699 0.3479072 0
0.1264154 0.1007958 0.2277006 0
0.2619689 0.0563329 0.3955874 0
-0.1789688 -0.2395665 0.6590765 0
-0.1279441 -0.1000087 0.6263332 0
0.2360137 0.0596027 0.3878722 0
0.0632780 -0.0131934 0.4735808 0
0.0598933 0.0830495 0.3537209 0
0.0640878 0.1054013 0.3090358 0
0.0871867 0.1031874 0.3171300 0
-0.0064727 0.0764347 0.3381427 0
0.0873377 -0.3404819 0.7351664 0
-0.0740605 -0.2153503 0.8024658 0
-0.2064305 -0.1234892 0.6841461 0
-0.0345468 -0.0051924 0.3965035 0
0.1947374 -0.0043599 0.4718880 0
-0.0987431 -0.1907993 0.6435205 0
0.5208958 -0.1572234 0.7493852 0
0.0464413 0.1153821 0.2923387 0
0.1922787 0.0539686 0.2873723 0
0.0676174 0.0714221 0.3775310 0
0.3932060 -0.1288924 0.6301112 0
-0.1199227 -0.1309393 0.6824564 0
0.0087426 0.0622217 0.3555124 0
-0.0960312 -0.1844220 0.6351349 0
0.5748429 -0.1724941 0.7565304 0
0.1559843 -0.0325034 0.4690683 0
0.0684423 0.1050277 0.3432738 0
0.5110092 -0.1509109 0.7300405 0
-0.1357175 -0.1567429 0.6844413 0
0.0802050 0.0329777 0.4069764 0
0.5415212 -0.4960247 1.1621537 0
1.0666780 -0.5536241 1.5130316 0
0.1104579 0.0151698 0.4370077 0
0.0856369 -0.0024135 0.4410078 0
0.7052600 -0.5171248 1.2396075 0
0.0654350 0.0920661 0.3270852 0
0.1803654 0.1334922 0.3259380 0
0.1233613 0.0926263 0.3321669 0
-0.0852712 -0.1864409 0.5935664 0
0.6459395 -0.4832386 1.2234904 0
0.0160518 0.0814885 0.3297603 0
0.1983666 0.0372857 0.3980142 0
-0.1305000 -0.2572045 0.7926848 0
0.0747864 0.0608624 0.4008431 0
0.0872805 0.1034143 0.3162117 0
-0.1294147 -0.0181591 0.4900570 0
0.0617295 0.0899136 0.3353905 0
0.6633116 -0.2526885 0.8722156 0
0.1092756 0.0115594 0.4434091 0
-0.1325138 -0.0838335 0.5513572 0
-0.0607635 -0.1445525 0.6874437 0
