# .PCD v.7 - Point Cloud Data file format
VERSION .7
FIELDS x y z rgb
SIZE 4 4 4 4
TYPE F F F F
COUNT 1 1 1 1
WIDTH 1432
HEIGHT 1
VIEWPOINT 0 0 0 1 0 0 0
POINTS 1432
DATA ascii

-0.3337365 -1.5907179 2.9602962 0
-0.1557745 -0.0986440 0.6040761 0
0.0186241 -0.0068338 0.4081140 0
0.2795008 -0.0093135 0.4437534 0
0.2289925 -0.0564564 0.4891410 0
-0.3283486 -0.3442315 0.7589624 0
0.3255337 0.1341685 0.2494028 0
0.2474899 0.1709037 0.2009387 0
0.8000160 -0.1261517 0.5590339 0
0.1759364 0.1035269 0.2895700 0
0.2966950 -0.0354613 0.4636358 0
0.5166327 0.2101615 0.1647595 0
0.6545550 -0.0411518 0.4726674 0
0.0412565 0.0806998 0.3082097 0
0.1490435 0.0095378 0.4099967 0
0.6816148 -0.0485997 0.4924265 0
-0.1638041 -0.1439611 0.5939761 0
0.2856188 -0.0351858 0.5200695 0
0.2304549 0.0919888 0.3093709 0
0.4005160 0.2011761 0.1922842 0
0.1102651 -0.0535257 0.4736166 0
-0.1119149 -0.1732062 0.6626418 0
0.1461656 0.1153728 0.2667166 0
0.1093297 0.0936866 0.3003953 0
0.6274024 -0.1881173 0.6199648 0
0.2736974 0.1032825 0.2890784 0
0.4863515 0.1689632 0.2262245 0
0.3617100 0.1432277 0.2686254 0
0.0032444 -0.0151953 0.4222000 0
0.4977179 0.0646767 0.3536237 0
0.2262159 0.1360049 0.2464337 0
0.1161233 0.1428801 0.2422010 0
-0.1726961 -0.0583800 0.5860800 0
-0.2181921 -0.0463070 0.5403480 0
0.2087976 -0.0032550 0.4282742 0
-0.0460654 0.0105857 0.3976901 0
0.7829310 -0.1176493 0.5666925 0
0.2373182 0.0080940 0.4010518 0
-0.1554385 -0.0995599 0.6098041 0
-0.1361852 -0.1480374 0.6570027 0
0.1599744 -0.0232887 0.4333956 0
0.3930134 0.2378342 0.1578159 0
0.2085062 -0.0037607 0.4234408 0
0.5657598 -0.2711152 0.7358373 0
0.3304015 -0.0424270 0.4717586 0
0.0491112 -0.0365028 0.4551973 0
-0.1178798 0.0100192 0.3326078 0
0.0650239 0.0331998 0.3968616 0
0.1471266 -1.3407717 3.1585732 0
0.0072581 -0.0661413 0.4921236 0
0.0030310 -0.0723710 0.5240993 0
-0.1306882 -0.1402835 0.5986543 0
0.3175178 0.0961851 0.3047137 0
-0.3195944 -0.0785004 0.7970054 0
0.1517814 0.0852067 0.3436054 0
0.5832653 0.1512220 0.2335056 0
-0.0810426 -0.0655640 0.5149230 0
0.3642998 0.0631543 0.3341318 0
-0.1498023 -0.0956477 0.5949989 0
0.1040049 0.1504972 0.2329259 0
-0.1077510 -0.0763860 0.5922561 0
0.2857274 0.1697392 0.2309102 0
-0.1253420 -0.4428488 1.4105679 0
-0.1766937 -0.2585304 0.6599743 0
-0.0556453 -0.1790598 0.7247881 0
0.4907916 0.1714081 0.2326328 0
0.4426603 0.0927293 0.2786850 0
-0.0478990 0.0101231 0.3971478 0
0.0614293 0.0320566 0.3996301 0
-0.1074858 -0.3978083 1.2421650 0
-0.1727275 -0.0272358 0.5209209 0
0.8445038 0.0296635 0.3631810 0
-0.0651333 -0.4159068 1.2961785 0
0.1571441 0.0487173 0.3543416 0
0.4198125 -0.1895258 0.6528137 0
0.2310634 0.0928195 0.2995023 0
0.1895178 0.1274786 0.2631631 0
0.0958073 0.0433029 0.3651912 0
0.4490472 0.1040060 0.2645440 0
-0.2129085 -0.0483021 0.5751178 0
0.1539113 0.0872165 0.3499966 0
0.3294970 0.1182018 0.2869416 0
0.2681072 0.0385947 0.3815496 0
0.4044116 -0.1851210 0.6389470 0
-0.2738142 -0.0601957 0.5160629 0
0.4450742 -0.2601330 0.7427555 0
0.0675546 0.0329874 0.3966194 0
-0.2135079 -0.1090138 0.5794404 0
0.7352962 -0.1477169 0.5728313 0
0.7385973 -0.1467200 0.5659457 0
0.2530580 0.0228197 0.4077953 0
0.0112994 -1.2169212 3.0020061 0
0.6003897 -0.2244850 0.6653883 0
0.5414749 0.1100513 0.2907290 0
0.1614367 -0.0295594 0.4546712 0
0.8261485 -0.0633122 0.4758181 0
0.3617486 0.1197235 0.2787213 0
0.0032879 0.0925109 0.2938027 0
0.1637071 0.0501883 0.3472963 0
0.4487217 -0.2237819 0.6927163 0
-0.1001299 0.0957741 0.2972176 0
0.4132769 0.1262688 0.2852130 0
0.7814578 -0.1228697 0.5400558 0
0.4113508 -0.2906764 0.7802038 0
0.8035398 -0.1287788 0.5635763 0
1.7293302 -0.4496568 1.0862786 0
-0.0971449 -0.1781880 0.7099590 0
0.2649505 0.0376516 0.3751075 0
0.7936366 0.0071369 0.4142061 0
0.4482109 0.1457859 0.2488705 0
-0.2662782 -0.2097985 0.6849698 0
0.0754058 0.1143218 0.2710207 0
0.1191561 0.0860744 0.3103195 0
-0.2328274 -0.1598808 0.6379492 0
0.4121763 0.2171600 0.1642381 0
0.6992779 -0.0529695 0.5065637 0
0.2360331 0.0942296 0.3175650 0
0.9467139 -0.0680862 0.5038809 0
0.1252590 0.1399947 0.2529006 0
0.7314414 -0.1273170 0.5540026 0
0.5458994 -0.3081972 0.8013539 0
-0.2686468 -0.1859182 0.6770940 0
0.7484685 -0.0001428 0.4220186 0
0.4841575 -0.0080110 0.4137389 0
0.2098544 0.0745342 0.3102897 0
0.1037582 0.1620501 0.2155132 0
-0.1884035 -0.1082442 0.6024944 0
0.1498686 0.1458899 0.2266444 0
0.7889975 -0.0537635 0.4781205 0
0.1400971 0.1583293 0.2985008 0
0.3582987 -0.2029585 0.8527921 0
-0.2513993 -0.0419907 0.5285045 0
-0.0928315 -0.2486369 0.6928072 0
0.1569067 0.0873922 0.3236293 0
-0.0414476 -0.1382279 0.5867020 0
0.2473068 0.0738189 0.3192891 0
0.2472266 0.1705051 0.1985398 0
0.3966895 0.1698474 0.2065809 0
-0.1898911 -0.0681537 0.5587410 0
0.0781466 0.1138038 0.2831774 0
0.2971077 0.0961041 0.3061449 0
0.3060710 -0.0848018 0.5055996 0
0.1262261 0.0253945 0.3889655 0
0.0686025 -0.0934069 0.5285069 0
0.3449302 0.1723147 0.2612374 0
0.2659875 -0.0082781 0.4149634 0
0.1585763 0.0491349 0.3474185 0
0.2659697 0.1424237 0.2652622 0
-0.0633799 -0.1411254 0.7064728 0
0.1530892 0.0865743 0.3478817 0
0.2018998 0.1050284 0.2940147 0
-0.2615533 -0.1054898 0.5541072 0
0.1092547 -0.1008794 0.5406021 0
0.2043029 -0.0302284 0.4406958 0
-0.2926509 -0.1346581 0.5615781 0
0.1383166 -1.2282102 2.9381378 0
-0.2580642 -0.2018603 0.6666606 0
-0.2108512 -0.1425811 0.6461014 0
-0.1480333 -0.0943875 0.5943269 0
-0.1517392 -0.0988848 0.6025336 0
0.3824003 -0.6494505 1.4088820 0
0.6212344 -0.1560880 0.6032369 0
-0.0792961 -0.1544863 0.6277563 0
0.1755484 0.0984619 0.3013847 0
0.2048074 -0.0311472 0.4503714 0
0.2938465 0.0461041 0.3685800 0
0.0028515 -1.2736747 3.1231728 0
0.3338464 -0.0166306 0.3978340 0
0.3287542 -0.0085092 0.4132473 0
-0.1187483 -0.2492197 0.6461088 0
-0.0380111 -0.2484299 0.8432477 0
0.3755514 0.1563057 0.2220851 0
0.0837414 0.1094911 0.2865951 0
0.3483164 -0.0068542 0.4158207 0
-0.1015140 -0.3973399 1.2690557 0
-0.1065401 -0.1859553 0.7499341 0
0.1949323 0.0366819 0.3604747 0
0.0627290 -0.0715857 0.5023202 0
0.5318720 -0.2702358 0.7606685 0
-0.0521219 0.1217621 0.2742171 0
0.1902974 0.1265230 0.2634756 0
0.1033361 0.1629740 0.2192251 0
0.9968559 -0.0586387 0.5238376 0
-0.2214871 -0.0469219 0.5420185 0
-0.1057548 -0.0654803 0.5647022 0
-0.0107069 0.1104039 0.2694883 0
1.8159814 -0.4552339 1.4143423 0
-0.2814997 -0.1226262 0.5322303 0
-0.1541252 -0.1342041 0.6108891 0
0.1500886 0.0082985 0.4042483 0
0.4631256 -0.0804011 0.5262208 0
-0.2507743 -0.0398165 0.5233232 0
0.0126945 0.0215027 0.4040960 0
-0.2462911 -0.1106795 0.5643864 0
0.1468197 0.1237932 0.2634252 0
0.4529561 0.0929087 0.2903025 0
0.1640849 -0.0265917 0.4562805 0
0.5290875 -0.0643199 0.4795962 0
-0.1554240 -0.0602915 0.5782326 0
-0.0862439 -1.2711817 3.1349702 0
0.3163523 -1.4720557 3.4497862 0
0.4550659 -0.0757785 0.4911578 0
-0.1400406 -0.1233716 0.5761751 0
0.0287829 0.1448989 0.2524943 0
-0.1738202 -0.1166489 0.6043625 0
-0.2305414 -0.0102872 0.5399558 0
0.3281753 0.0728333 0.3223991 0
0.4080163 0.2051774 0.1990178 0
0.1627585 -0.0253341 0.4519684 0
0.2058588 -0.0039209 0.4167360 0
0.0682867 -0.0931193 0.5232534 0
0.5257595 0.0667204 0.3225498 0
0.2546245 0.0218864 0.4241707 0
0.3169582 0.1880429 0.2095344 0
-0.1732056 -0.1242910 0.5757431 0
-0.3042748 -0.2087625 0.6500441 0
-0.1149568 -0.0771701 0.6233240 0
0.4444239 0.1459860 0.2483535 0
-0.2954921 -0.1996484 0.6503254 0
-0.0786022 -0.0819168 0.5923541 0
0.7911886 -0.1667392 0.6282578 0
-0.2182885 -0.3026860 0.7142308 0
0.0671631 -0.0944267 0.5283329 0
0.2104892 0.0809935 0.3161747 0
0.2052065 -0.0323087 0.4504946 0
-0.0904131 -0.1694468 0.6929924 0
0.0002742 0.0908275 0.3003987 0
0.3283353 0.0756917 0.3132077 0
0.8121496 -0.1335648 0.5723127 0
0.5617321 0.1464231 0.2203388 0
0.1969839 -0.0346055 0.4592651 0
-0.0555814 -1.5602517 3.1171699 0
0.0244316 -1.2489612 3.0774341 0
-0.0808401 0.0787884 0.3038209 0
0.3292263 0.1854030 0.2471860 0
0.1927011 -0.0340297 0.4561374 0
-0.1121525 -0.0684893 0.5857517 0
0.4693161 -0.0809142 0.5057447 0
0.3696440 -0.2242607 0.6826037 0
0.3203962 0.1137445 0.2716688 0
0.1559334 0.0882569 0.3347901 0
0.7985922 -0.1707061 0.6422604 0
-0.1429601 -0.0562856 0.5847754 0
0.7733934 -0.1146923 0.5552836 0
0.4395308 -0.2473916 0.7156231 0
-0.1337626 -0.0801370 0.6348462 0
0.6786935 -0.1239997 0.5397062 0
0.3782557 0.0619287 0.3199095 0
0.4983077 0.2070400 0.1488821 0
-0.2540373 -0.1013886 0.5435607 0
-0.0466509 0.1207522 0.2658659 0
0.4017497 0.1300215 0.2495337 0
0.1497073 0.0089706 0.4019632 0
0.6259945 -0.1984927 0.6530083 0
0.4400850 0.2403977 0.1183897 0
0.6095119 -0.1503804 0.5866997 0
0.6218132 -0.2349430 0.6917436 0
-0.1262695 -0.2274132 0.6257947 0
0.4542723 -0.0752146 0.4923046 0
0.6367549 -0.0604481 0.4920550 0
-0.3844782 -0.2387412 0.6871235 0
-0.2109338 -0.0847128 0.5436545 0
-0.0566914 -0.0861910 0.5661586 0
-0.2473954 -0.0387965 0.5170107 0
0.2726219 0.1026607 0.2938516 0
-0.2191089 -0.2984459 0.7068940 0
0.4150549 0.1273774 0.3112433 0
0.2716254 -0.0260015 0.4425797 0
-0.0800915 -0.4022131 1.2445095 0
0.1145480 -0.0530401 0.4778235 0
0.4280186 -0.1124072 0.5619929 0
0.0400936 0.0968708 0.2967077 0
0.3591917 0.1024970 0.2769333 0
-0.1802847 -1.5413266 3.2262275 0
-0.1028638 -0.2745733 0.7904438 0
0.2319180 0.0937218 0.2968035 0
-0.0774683 -0.1776148 0.7144389 0
0.6976937 -0.0529288 0.5058452 0
0.7468940 -0.0012651 0.4213682 0
-0.3405142 -0.3556019 0.7803801 0
0.4145804 -0.1920799 0.6551326 0
0.2199738 0.0821335 0.3271461 0
0.3491085 -1.5092120 3.3012879 0
0.2531654 0.0228783 0.4273177 0
0.4137595 -0.1871230 0.6438668 0
0.5626391 -0.5104927 1.1740724 0
0.2699440 -0.0086622 0.4239936 0
0.2903641 0.0456320 0.3646670 0
-0.1774970 -0.2789323 0.8066919 0
0.3960609 0.1284345 0.2437193 0
-0.0770100 -0.2292327 0.6890238 0
0.0035067 -0.0234286 0.4393779 0
0.2544828 0.0224384 0.4042008 0
0.0999402 0.0447772 0.3509830 0
0.6373841 -0.0622109 0.4950798 0
0.0125358 0.0223266 0.3961485 0
0.2232706 -0.1552712 0.6087177 0
0.3986102 0.0754145 0.3335298 0
0.0566262 0.1886119 0.2341145 0
0.3057509 0.1732371 0.2699701 0
0.3287647 0.0748687 0.3167605 0
0.2921160 0.0467276 0.3621905 0
0.0820922 -1.1752660 3.1396344 0
0.1864203 0.0424680 0.3513378 0
-0.0279861 0.1111072 0.2925797 0
-0.1954147 -0.0534519 0.5937810 0
0.3326296 0.1348160 0.2561183 0
0.3288385 0.0746715 0.3187330 0
0.1778345 0.0997275 0.3051004 0
0.2633140 0.1412656 0.2560649 0
0.3382109 -1.5331661 3.5949798 0
0.7333567 0.0460888 0.3400250 0
-0.2872290 -0.1305483 0.5552545 0
0.4074683 0.1262532 0.2750973 0
0.1380155 -1.2496889 2.9499264 0
0.3721008 0.1559211 0.2185524 0
-0.1663986 -0.1051569 0.6424540 0
0.3214142 0.1913831 0.2180154 0
0.1597548 0.0491604 0.3450341 0
0.3182862 0.1912597 0.2108152 0
-0.2037567 -1.7151320 3.5378382 0
-0.3480448 -1.8961082 3.5289640 0
0.4339222 0.0349547 0.3651202 0
-0.0031061 -0.0115764 0.4278263 0
0.1987119 0.0856524 0.3099768 0
-0.4083211 -0.4634417 1.1554123 0
-0.1907017 -0.0528799 0.5803475 0
-0.0464058 0.1212744 0.2665247 0
0.3914303 0.2368510 0.1565177 0
0.1179494 0.0862184 0.3034223 0
-0.0869003 -0.2742559 0.8691594 0
0.2893241 0.0470103 0.3541483 0
0.0721783 0.1176208 0.2758112 0
-0.0520877 -0.3756175 1.2108583 0
0.5639708 -0.2377480 0.7214061 0
0.2665138 0.0391772 0.3751717 0
0.3528177 -1.4890789 3.4292662 0
0.4566531 -0.2833744 0.7583556 0
0.3731051 0.0632540 0.3484280 0
-0.0807793 -0.1566559 0.6358445 0
-0.2113155 -0.2919978 0.6904797 0
-0.1545146 -0.0591565 0.5761368 0
-0.1953048 -0.0715408 0.5665941 0
0.2662177 0.1079344 0.2229068 0
-0.2236992 -0.0475502 0.5475641 0
0.2365987 0.1779728 0.1892355 0
-0.0452379 -1.2695981 3.2480998 0
0.6027503 -0.0658865 0.3951100 0
0.4422633 -0.2125906 0.7107292 0
0.3214282 0.1160963 0.2716112 0
0.5151869 -0.1273747 0.5719874 0
0.6300098 0.0626150 0.3660485 0
0.4742984 -0.1137020 0.5190396 0
-0.1838576 -0.0910204 0.5213543 0
0.3809970 0.1063777 0.2997180 0
0.0463944 -0.2684502 0.9062034 0
0.3478332 -1.5206872 3.3036821 0
-0.2567472 -0.0738841 0.4897183 0
-0.1101653 -0.0667583 0.5760134 0
0.3747108 0.1565607 0.2171933 0
0.9157082 -0.1100340 0.5662682 0
-0.0521086 -0.0630577 0.5065700 0
0.2216119 -0.1558698 0.6083237 0
-0.1560954 -0.0607888 0.5844653 0
0.3618063 0.1200764 0.2795312 0
0.1128221 -0.0523121 0.4723729 0
0.0712165 0.1176750 0.2758503 0
0.4139407 0.1156596 0.2611310 0
0.3567993 0.0603337 0.3246609 0
-0.2015877 -0.2025427 0.6355385 0
0.4158410 0.2472918 0.1451477 0
0.3183149 -0.0421686 0.4561842 0
0.1861914 0.0415467 0.3648005 0
0.5008895 -0.1215107 0.5606001 0
-0.2955123 -0.2023633 0.6296500 0
-0.2160367 -0.0321897 0.5870697 0
0.4319285 0.1437481 0.2317998 0
-0.1596843 -0.0629817 0.6475913 0
0.5501370 0.1122054 0.2975708 0
0.3375760 0.1373159 0.2692209 0
0.3221517 -0.0447307 0.4662673 0
-0.0417560 -0.3875800 1.2277764 0
-0.2665631 -0.2925343 0.6535147 0
0.1607028 0.0492577 0.3507584 0
0.2680172 -0.0087575 0.4217365 0
0.2056509 -0.0314505 0.4448019 0
-0.0091115 0.0975714 0.2892922 0
0.0742636 0.1153887 0.2740547 0
0.2782919 0.2268255 0.1599259 0
0.6089936 0.1171032 0.2524005 0
0.0266230 0.2071690 0.1609788 0
0.2340370 -0.0635269 0.4878446 0
-0.1735106 -0.1968140 0.5837155 0
0.2379785 0.1808156 0.1912285 0
0.1619083 0.0491227 0.3504601 0
0.2671165 0.0375170 0.3777763 0
0.3195495 0.1151903 0.2695256 0
0.2445364 -0.2012168 0.6601384 0
-0.1692871 -0.1490732 0.6129233 0
0.3065905 0.0932148 0.2930120 0
-0.2300884 -0.1333663 0.5908257 0
0.2941072 0.0971257 0.2873389 0
0.0066676 0.1618487 0.2131107 0
0.1738997 0.1005037 0.3148722 0
0.3645402 0.0588811 0.3429553 0
0.1236098 0.1620385 0.2156603 0
0.4403342 0.2319576 0.1634405 0
0.2738293 0.1031326 0.2941711 0
0.0056412 -0.0683978 0.5000967 0
-0.0834273 0.0798371 0.3141994 0
-0.0287912 -0.1292016 0.5247110 0
0.1718812 0.0968420 0.2815056 0
0.1421592 -1.3426716 3.1733315 0
-0.1075504 -0.0667130 0.5720283 0
0.1266203 0.1379724 0.2506138 0
0.6416052 -0.0635110 0.4990909 0
0.3068342 0.0926631 0.2949320 0
0.0284109 0.1448455 0.2538921 0
-0.1246606 -0.1375639 0.6263584 0
0.2760167 0.1619498 0.2140212 0
0.2917818 -0.0342878 0.4537542 0
0.3060083 0.0938115 0.2903431 0
-0.0796232 -0.1015486 0.6321625 0
0.3471841 0.1182443 0.2796497 0
0.2227998 0.1348331 0.2425038 0
0.1278452 0.0807470 0.3170114 0
0.5078964 -0.1428832 0.5989227 0
0.1694411 0.0996115 0.3117890 0
-0.1152039 -0.1712474 0.6518487 0
0.2456420 -0.1697380 0.6277584 0
0.4130632 0.2447323 0.1433334 0
0.5451302 -0.3089202 0.8032464 0
-0.1160606 0.0422001 0.3647768 0
0.3975802 -1.6735795 3.8313694 0
-0.3068702 -0.3756025 0.7940686 0
-0.2514246 -0.0416201 0.5273609 0
-0.2288296 -0.1316597 0.5924217 0
-0.2645559 -0.3141546 0.7084333 0
0.0740469 0.1156391 0.2730767 0
-0.2747148 -0.1802063 0.5932789 0
0.1075944 0.0330078 0.3861051 0
-0.0959931 -0.3830210 1.2321607 0
-0.1748224 -0.0582250 0.5907123 0
0.7150422 -0.1370612 0.5806986 0
0.7881608 -0.0532577 0.4758937 0
0.4135067 0.1286653 0.2835728 0
-0.1760632 -0.1547603 0.6233305 0
-0.1433160 -0.1702932 0.5212131 0
0.5537041 -0.2675041 0.7371123 0
0.4876170 0.1703510 0.2279254 0
0.3794189 0.0553138 0.3751901 0
0.1090188 0.0934947 0.3010954 0
0.3900501 -0.0305572 0.4522080 0
0.1791163 0.1016879 0.3226219 0
0.2355121 -0.0624715 0.4888139 0
0.4517808 0.0924883 0.2884598 0
-0.0891239 -0.1881187 0.7459006 0
0.1555664 0.0878396 0.3307903 0
0.3200699 0.1909973 0.2151987 0
0.5032542 0.1891881 0.2142943 0
0.2049989 -0.0316030 0.4483102 0
0.2806897 0.1665152 0.2203968 0
0.0829625 0.1108747 0.2885783 0
0.2346221 -0.0611047 0.4876754 0
0.3486522 -0.0771371 0.5154192 0
0.0000612 -0.0258921 0.4627185 0
0.3070432 -0.0858111 0.5128434 0
0.2435811 0.1878519 0.2070626 0
-0.0024806 -0.0123597 0.4257975 0
0.0193296 -0.0764249 0.5050287 0
0.3534070 -0.6870311 1.5882748 0
-0.1574184 -0.0612563 0.5868238 0
0.4425311 0.1452151 0.2445460 0
0.2530942 0.1510322 0.2250381 0
0.1286442 0.1348344 0.2507998 0
0.1533410 0.0099620 0.3993384 0
0.7338725 0.0141638 0.3667445 0
0.1857150 -0.1874312 0.6565863 0
0.7566803 -0.1495212 0.5992459 0
0.3796152 0.1068892 0.2989512 0
-0.0468525 0.0095632 0.3998832 0
0.3548808 0.1420556 0.2610840 0
0.5490063 -0.2292346 0.6936758 0
0.1053444 -0.1155472 0.5821534 0
-0.0639503 -1.3082837 3.0886602 0
-0.1569284 -0.2548480 0.6667447 0
0.5155021 -0.1260384 0.5685300 0
0.0479008 -0.0372694 0.4626127 0
0.5344088 -0.0701099 0.4938526 0
-0.4293345 -0.3682767 0.8212862 0
0.4998664 0.2068738 0.1500530 0
0.3204552 0.1147192 0.2716310 0
0.0224893 -0.2908834 0.9561830 0
0.2888179 0.0451654 0.3613195 0
-0.1162145 -0.4161301 1.2967101 0
0.0595458 0.1736024 0.2053750 0
0.2816556 0.1164258 0.2643602 0
0.0244025 -0.3059440 1.0114250 0
-0.0582575 0.1285440 0.2547325 0
0.1080502 -0.0998224 0.5383617 0
0.2325533 0.1500428 0.2370557 0
0.1037104 0.1645466 0.2198169 0
-0.1773296 -0.1553815 0.6413018 0
0.2594619 -0.0029817 0.3877235 0
-0.2111982 -0.2946269 0.6980236 0
1.7657069 -0.4580815 1.1116709 0
0.3192579 -0.0434196 0.4585271 0
0.2781576 0.1042013 0.2975564 0
0.3590004 0.0611639 0.3296474 0
0.5741888 -0.1537884 0.5298202 0
0.0826782 -0.2181086 0.8035290 0
0.5168049 -0.1255248 0.5646690 0
0.0105321 -0.0183267 0.4232592 0
0.4364284 -0.0405089 0.4604120 0
0.0404335 0.0965727 0.2959578 0
0.3166074 0.1901539 0.2098664 0
-0.1928729 -0.0700798 0.5632892 0
-0.0859880 -0.2303598 0.6565701 0
0.2882067 0.1720839 0.2406565 0
-0.1754926 -0.0725567 0.6235131 0
0.4235536 0.2192020 0.1831974 0
0.0426768 -0.0382653 0.4665094 0
0.2216838 0.1111535 0.2690280 0
-0.0339724 -0.2404369 0.8210462 0
0.5159543 -0.1419259 0.5769457 0
0.0083548 -0.0608510 0.4786355 0
0.4852351 0.1722329 0.2273675 0
0.3197148 0.1156812 0.2700340 0
0.2527897 0.1771502 0.2181060 0
1.1170107 -0.0985263 0.5938516 0
0.5382092 0.2268607 0.1353357 0
0.5228654 -0.1282168 0.5733998 0
0.2881279 0.1203312 0.2603091 0
-0.0488449 0.0111605 0.3898400 0
0.3173828 0.1907264 0.2137431 0
0.0657921 -0.0697888 0.4950366 0
0.4446612 0.1459319 0.2477210 0
0.0227753 0.0760777 0.3160630 0
-0.1695327 -0.0792316 0.5598573 0
0.0056748 -0.0695670 0.5030891 0
0.3820125 0.2300619 0.1468388 0
0.0696170 -0.0916360 0.5248725 0
0.7203148 0.0072528 0.3952958 0
-0.0356610 -0.0535499 0.4657765 0
0.3300067 0.0743534 0.3212930 0
1.1263179 -0.1016524 0.5999498 0
0.5120918 0.1916070 0.2205902 0
0.7381206 0.0912381 0.2912644 0
0.2816005 -0.0135281 0.4282383 0
0.3311508 0.1354183 0.2556328 0
0.1231710 0.1411851 0.2387676 0
-0.0016537 0.1668874 0.2016299 0
0.3792609 0.1073567 0.3006285 0
0.8015069 0.0945594 0.2729890 0
0.7309937 0.1134083 0.2575469 0
0.2249712 0.2000985 0.2034602 0
0.3832051 0.3077312 0.0315639 0
-0.1159975 0.2591802 0.1197697 0
0.2915099 0.1636138 0.1895082 0
0.6995299 0.0598894 0.4164060 0
0.3624148 0.1444358 0.2668804 0
-0.4138568 -0.3122963 0.7618975 0
0.3265377 -0.1154787 0.5248442 0
-0.0360297 -0.2569107 0.8499581 0
0.3225212 0.0598176 0.3326063 0
0.1687335 0.1447607 0.2313917 0
0.2451613 0.1634142 0.2085571 0
-0.1261837 -0.1395594 0.6298735 0
-0.1089420 -0.2284714 0.6409524 0
-0.1674815 -0.0553486 0.5782144 0
0.4935329 0.2604263 0.1013409 0
0.2797418 0.2226146 0.1414481 0
0.0887821 0.1535127 0.2259934 0
0.4913725 0.1732355 0.2339558 0
0.5167271 0.1951754 0.2088480 0
0.0885420 0.1540576 0.2324893 0
0.5208835 0.2110685 0.1674538 0
-0.1920634 -0.1073606 0.5961896 0
0.0814173 -0.2237678 0.8216253 0
0.5869588 -0.2503512 0.7078730 0
-0.0034999 0.1678529 0.2068473 0
0.5409510 -0.1525316 0.6060093 0
-0.0925498 0.1358258 0.3660526 0
0.2113484 0.0235343 0.3746231 0
0.5012848 0.2076591 0.1513278 0
0.2672146 0.2223002 0.1446771 0
0.1690797 0.1436588 0.2324604 0
0.0261211 0.2070214 0.1622415 0
0.0074255 0.1604796 0.2103009 0
0.2375632 0.1805955 0.1927110 0
0.2431534 0.1640822 0.2086734 0
0.2661135 0.2221030 0.1440945 0
0.1691668 0.1437529 0.2342346 0
0.1832404 0.0964570 0.2962471 0
0.2997949 -0.0269026 0.4490072 0
0.4999958 0.2068861 0.1510741 0
0.4194892 0.2484919 0.1385376 0
0.2691503 0.2112540 0.1572923 0
0.5110803 0.0698488 0.3753196 0
0.3201687 0.1920425 0.2221886 0
-0.0850665 -0.2721218 0.8417335 0
0.4048448 0.1292046 0.2501861 0
0.0483595 -0.0494357 0.4146863 0
0.4176373 0.2431486 0.1498003 0
0.2058403 -0.0330323 0.4444155 0
0.4608056 0.2523965 0.1337251 0
0.4158929 0.2463760 0.1354087 0
-0.0872876 -0.1632762 0.6540052 0
0.7189358 -0.1379901 0.5808066 0
-0.2623609 -0.2052182 0.6316455 0
1.1076415 -0.4168389 1.1422856 0
0.5372015 -0.0697456 0.4933467 0
0.1293435 0.0271076 0.3747801 0
-0.0699081 0.1221942 0.3280526 0
1.1195600 -0.3892668 1.1271534 0
0.2064525 -0.0033558 0.4186253 0
0.5315879 -0.1856382 0.6521822 0
0.0622541 -0.0922709 0.5427223 0
0.1108871 -0.1002032 0.5364779 0
0.4008987 -0.2763250 0.7465610 0
0.1622149 0.0496678 0.3473372 0
0.3761647 0.1570944 0.2165190 0
-0.0913163 -0.1692516 0.6752311 0
-0.0511673 0.1343152 0.2518387 0
0.0017016 -0.0180183 0.4379074 0
-0.0356354 -0.3127237 1.0050786 0
0.4265216 -0.6853986 1.3827891 0
0.3393167 -1.4957663 3.2512145 0
0.2747653 0.1036227 0.2828986 0
-0.0154286 -0.0814234 0.5188068 0
-0.0410581 -0.0651387 0.5047371 0
0.3573362 -1.5244755 3.3388424 0
-0.3999554 -0.4909903 1.0083166 0
0.3057466 -0.0319102 0.3973083 0
0.1217674 -1.4313333 3.0763593 0
-0.0638370 -0.2054390 0.6018348 0
-0.1565124 -0.1056406 0.5931838 0
-0.4954910 -1.0283713 2.2876618 0
0.3346562 0.1682847 0.1989900 0
0.2394796 0.1820788 0.1871122 0
0.3976091 -0.4332218 1.1003027 0
0.2218863 0.2389867 0.1104722 0
0.3354079 0.1668236 0.2356949 0
0.2439636 0.2495012 0.1086910 0
0.4794741 -0.5594205 1.1950047 0
0.2342875 0.0100933 0.3887006 0
-0.0177156 0.2300992 0.1336658 0
0.3117862 0.1146053 0.2583528 0
0.2724985 0.1177668 0.2662045 0
0.1050369 0.2198183 0.1467858 0
0.2661668 0.2225018 0.1417962 0
0.3372742 0.1672389 0.2393616 0
0.2361399 0.0082885 0.3995086 0
0.8569059 0.0903572 0.3094732 0
0.4051949 0.2698534 0.1276785 0
0.5417158 -0.0352498 0.4458092 0
0.2665209 0.2444545 0.1150179 0
0.3568232 0.0759766 0.3064861 0
0.2853973 0.1058384 0.2831612 0
0.4886111 0.2604683 0.0953269 0
-0.1888336 -0.0687427 0.5549665 0
0.3908453 -0.0285965 0.4336778 0
0.5366083 -0.2787805 0.7627219 0
0.2600004 0.2330302 0.1272302 0
0.2283648 0.0918817 0.2933586 0
-0.0249121 0.1814199 0.1880492 0
0.6278377 -0.2462383 0.7194542 0
0.3127147 0.1788015 0.2184574 0
0.3882680 0.2377425 0.1533438 0
0.4318213 0.2617947 0.0845497 0
0.0251779 0.2087438 0.1680034 0
0.1806860 0.0999013 0.3580731 0
0.1857743 0.0946417 0.2899094 0
0.4112668 0.1208874 0.2851765 0
0.8254321 0.0325444 0.3469909 0
0.3410704 -0.0692349 0.4850852 0
0.9403933 0.0207972 0.3779358 0
0.5454165 -0.1928165 0.6407015 0
0.8678747 0.0108985 0.3783281 0
0.8652454 -0.0348438 0.4229910 0
0.3665263 -0.6077667 1.3402647 0
0.2231299 0.1100831 0.2740408 0
0.7371666 0.0458490 0.3425677 0
0.2223491 0.1908115 0.1811829 0
0.0476669 0.1341428 0.2554866 0
0.0497357 0.1331259 0.2491850 0
0.5523509 0.1459856 0.2120866 0
0.4660996 -0.0030283 0.3870618 0
0.8157302 0.0562050 0.5084887 0
0.6342596 -0.0572859 0.4912599 0
0.0864493 0.1533404 0.2262821 0
0.0097075 0.0384494 0.3675867 0
-0.0551764 -1.2244798 2.8881588 0
0.5841976 -0.1669740 1.1600125 0
0.4237645 -0.4981713 1.2449390 0
0.1558792 0.0881875 0.3442089 0
0.5953217 -0.0083751 0.3844909 0
0.2025123 -0.1525543 0.5942065 0
0.7340466 0.0059850 0.4066480 0
0.3121665 -0.0385883 0.4299685 0
0.2716313 -0.8647291 2.4276860 0
-0.9093305 -2.1401613 4.1556420 0
-0.3110102 -0.2247625 0.6438102 0
0.0473171 -0.0374875 0.4592356 0
-0.5896562 -1.6665214 3.2085364 0
-0.2150845 -0.0151869 0.5522975 0
-0.0407234 0.1231919 0.2954395 0
0.4148379 -0.4920277 1.2111076 0
0.2554954 -0.0716821 0.4098399 0
0.6441206 -0.2109301 0.6792456 0
2.9569745 -1.0889705 2.4432614 0
0.1498333 0.0100423 0.3931080 0
0.6479071 -0.2522091 0.7329972 0
-0.2603477 -0.0127288 0.5366825 0
-0.3452453 -0.2267986 0.6329226 0
-0.0465017 0.1337171 0.2299868 0
-0.2440653 -0.0748863 0.5270208 0
0.0049360 -0.0114004 0.4085532 0
-0.2699946 -0.2715212 0.6560388 0
-0.0791596 0.1412887 0.2325811 0
-0.3045800 -0.1319815 0.5683424 0
0.4524117 -0.9095925 2.0598431 0
-0.2066318 -0.1391970 0.6148504 0
-0.0598069 -0.1954920 0.7790056 0
-0.3245426 -0.2249331 0.6559841 0
-0.2066103 -0.2100278 0.6566846 0
0.5358322 -1.6218160 3.3256750 0
-0.2497905 -0.1934809 0.6392016 0
-0.1544198 -0.1479590 0.6164896 0
-0.3235905 -0.1660735 0.5912321 0
-0.3106794 -0.2246072 0.6427562 0
-0.2804535 -0.0466270 0.5236718 0
-0.2860707 -0.2020658 0.6692249 0
-0.2717222 -0.1872222 0.6401047 0
0.5899681 0.2381565 0.1258408 0
-0.0491642 0.1389351 0.2409476 0
-0.2515110 -0.1941425 0.6414006 0
-0.3156443 -0.2185077 0.6342578 0
-0.1963607 -0.1205777 0.6114770 0
0.2518401 0.2289933 0.1447671 0
0.2256954 0.1684793 0.2035535 0
0.1858446 0.0415052 0.3594420 0
-0.1098968 0.1005535 0.3060727 0
0.2026977 0.1993737 0.1686731 0
0.2287893 0.2429632 0.1233646 0
0.1705990 0.1990438 0.1726151 0
-0.3275619 -0.2291085 0.6603882 0
-0.2973562 -0.0632427 0.4950712 0
-0.2215898 -0.0867462 0.5294942 0
0.4515072 0.2961086 0.0494017 0
0.4230917 0.2523185 0.1384070 0
0.4191368 0.2395134 0.1039164 0
0.2126558 0.1599248 0.2091229 0
0.1701429 0.1985893 0.1728173 0
0.3020902 0.1943027 0.1721385 0
0.0032433 0.2366049 0.1218691 0
0.3134809 -0.1082912 0.5345499 0
0.0280039 0.2075638 0.1634023 0
0.3802997 0.1942631 0.1664920 0
0.1132564 0.2556633 0.0841688 0
0.1990470 0.3071260 0.2435748 0
-0.1226557 0.2659651 0.1410813 0
0.4018799 0.1262154 0.2933489 0
0.3254890 -0.5790889 1.3420503 0
-0.2063087 -0.0118171 0.5401680 0
0.3440738 0.3054111 0.0479867 0
-0.0507668 0.1342861 0.2502652 0
-0.0492674 0.0104772 0.3953652 0
0.4195113 0.1251554 0.2939371 0
-0.1921120 -0.0008429 0.4822641 0
0.3859649 0.2375383 0.1515127 0
0.3058126 0.2263771 0.1317030 0
0.4940431 0.2602598 0.1009150 0
0.2215775 0.1492198 0.2111261 0
0.2164445 0.3206550 0.2856328 0
-0.0193199 0.2287135 0.1362966 0
0.0581866 0.0392612 0.3599770 0
-0.1902213 0.0020388 0.4618037 0
-0.0050960 0.2338895 0.1325668 0
-0.2827043 -0.6654801 1.5284232 0
0.3859450 0.2391168 0.1495147 0
0.4674211 0.1675967 0.2068720 0
0.3163476 0.1141937 0.2657374 0
0.3359565 0.0706911 0.3355803 0
-0.0533662 0.0106286 0.3972840 0
0.2557783 0.0701269 0.3406489 0
0.2608414 -0.0086792 0.4092146 0
0.0325655 -0.0970500 0.5775170 0
0.3140236 0.1615273 0.1872171 0
0.3598478 0.1192536 0.2809724 0
0.3595317 0.2319078 0.1221637 0
0.4455634 0.2816925 0.1872295 0
0.2261765 0.1938418 0.2177536 0
0.2830373 0.1735781 0.2315327 0
0.2314410 0.0914932 0.3019091 0
-0.1134609 0.1483527 0.2987341 0
0.1645590 -0.0369028 0.4748866 0
0.1673224 0.1003675 0.3230185 0
-0.0550287 0.0117718 0.3894038 0
-0.0709545 0.1435392 0.1888719 0
0.0248269 0.2083037 0.1673495 0
0.4205942 0.2505290 0.1055077 0
-0.6243895 -1.6878779 3.4492664 0
0.5273689 -0.0458677 0.4639757 0
-0.0714308 0.1488536 0.2304517 0
-0.2101042 -0.0438812 0.5333638 0
0.3104001 -0.1091781 0.5370975 0
-0.0255126 0.1822477 0.1909111 0
0.4938821 0.3677137 0.2581989 0
0.2610803 0.2334222 0.1274056 0
0.3067157 -0.1036098 0.5160694 0
-0.6258222 -1.7799453 3.4297040 0
0.2929720 -0.0914450 0.4813683 0
0.8728796 0.0550190 0.3622012 0
0.3443765 0.1366530 0.2779739 0
0.3367369 0.1377458 0.2651272 0
0.8044440 -0.1823961 0.6589669 0
0.3247309 -0.6131383 1.4457042 0
0.2679456 0.0356807 0.3844627 0
-0.1389706 -0.2379747 0.6302046 0
0.5023639 0.0795427 0.3190607 0
-0.0793522 -1.3608778 3.2163796 0
0.2482380 0.0728136 0.3251287 0
0.5812913 0.1184091 0.5600061 0
0.3601060 0.1269563 0.2478252 0
0.3410871 0.1095170 0.2371617 0
1.8488209 -0.4807169 1.1635628 0
0.8095489 -0.0594270 0.4644991 0
0.0413196 0.1894875 0.2257920 0
0.8373414 -0.1355786 0.5912870 0
0.6177424 -0.0547173 0.4958192 0
0.5741704 -0.1775795 0.6993998 0
-0.2235452 -1.8418458 3.7955496 0
1.9974862 -0.5240741 1.5912858 0
0.1055964 -0.0965986 0.5256452 0
-0.0491749 0.0615827 0.5846438 0
-0.0978227 0.0773175 0.3195004 0
0.3873523 -0.4118553 1.0883100 0
-0.2352210 0.0067689 0.5133444 0
0.5263703 -0.2449976 0.6835808 0
-0.2844353 -0.0448707 0.5628774 0
0.5066149 -0.2798877 0.7339006 0
-0.1194011 0.0781250 0.3725083 0
-0.3695893 -0.0637472 0.9165308 0
0.0219265 -0.0376753 0.4482765 0
-0.2105987 -0.2159488 0.6626978 0
-0.2999198 -0.1055908 0.5364431 0
0.8796735 -0.7074492 1.4371457 0
0.5195357 -0.4691335 1.0773114 0
-0.2485765 -0.2914101 0.6585710 0
0.6485127 -1.7143009 3.6146472 0
-0.2537045 -0.2996577 0.6752986 0
0.0150730 -0.0538678 0.4806575 0
-0.2550886 -0.3004510 0.6774978 0
-0.2324246 -0.1819275 0.6401361 0
4.0314131 -2.8688076 5.8305373 0
-0.0829710 -0.2340835 0.6351775 0
-0.2299549 -0.0946190 0.5375778 0
-0.3004807 -0.0674414 0.5081368 0
0.2109400 0.2787645 0.0831515 0
0.4914235 0.2628461 0.0954871 0
0.0122432 0.0513396 0.3559435 0
0.2388737 0.3130216 0.0494326 0
0.3169932 0.2304193 0.1456144 0
-0.0031395 0.1686583 0.2150752 0
-0.0237709 0.1817629 0.1825012 0
0.5132418 -0.0120407 0.4246538 0
0.1583952 0.2963482 0.0590299 0
0.3588428 -0.3707730 0.9908955 0
-0.2201236 0.0015294 0.5214031 0
0.1134743 0.2347925 0.1234513 0
0.5133462 -0.0127896 0.4243769 0
-0.0397494 0.1910098 0.1587542 0
0.1858482 0.2716441 0.0802531 0
0.0811231 0.2751629 0.0737274 0
-0.0134247 0.0175018 0.3936675 0
0.1980665 -0.4747091 1.4897313 0
-0.4283501 -0.2409601 0.6636099 0
0.0723305 0.2637861 0.0998513 0
-0.2646904 -0.2060937 0.6346928 0
0.5092745 0.2669542 0.1074361 0
0.2385432 0.3126387 0.0488408 0
0.0654340 0.0327849 0.3993388 0
-0.1199840 0.2634167 0.1319325 0
0.2314686 -0.6053920 1.8467920 0
0.5838708 -0.2877308 0.7782953 0
-0.1774292 0.1532405 0.2630635 0
-0.0855642 -0.2495671 0.6686743 0
-0.2836803 0.0662071 0.3847474 0
-0.3103340 0.0118332 0.4875368 0
-0.0417843 0.1927118 0.1719544 0
-0.0248037 0.1139391 0.3102916 0
-0.1086734 0.1004434 0.3015004 0
-0.3404318 0.0260924 0.5635936 0
-0.4117419 -0.1914824 0.6756890 0
-0.3067575 -0.0699616 0.5199832 0
0.0018386 0.2205225 0.1435997 0
-0.0844512 -0.0922909 0.6377192 0
-0.3647529 0.0431615 0.5643345 0
-0.3259445 0.0059893 0.5147741 0
0.6947660 -0.5669710 1.1516263 0
-0.2615585 -0.0306710 0.5044984 0
-0.2896015 0.0011494 0.5394153 0
-0.2962427 -0.0641060 0.4972115 0
-0.0419733 0.1922398 0.1675001 0
0.0029399 0.2364009 0.1238802 0
-0.0979484 0.2767721 0.1157391 0
-0.1170767 0.2609366 0.1269375 0
-0.2190302 -0.0494629 0.5947023 0
-0.3159164 -0.0322548 0.4824857 0
-0.2510278 -0.0987899 0.5367776 0
0.2038555 0.1893740 0.1782023 0
0.2302574 0.0923278 0.3006846 0
0.0089411 0.1600773 0.2267554 0
-0.1153490 0.2595575 0.1230199 0
0.2901557 0.1730728 0.1864545 0
-0.4203942 -0.3195504 0.8432644 0
0.4102581 -0.1961870 0.6720725 0
-0.2741821 0.0094570 0.4899053 0
0.4309872 0.2605904 0.0846188 0
0.1658877 0.1985456 0.1665897 0
-0.1154328 0.2594558 0.1231524 0
-0.0843171 0.1422558 0.2544568 0
0.3204515 0.1136351 0.2723534 0
-0.2556258 -0.0268917 0.4913301 0
0.5325115 -0.1449184 0.5692341 0
0.2135653 0.2810577 0.0921755 0
-0.2404181 -0.1466036 0.5370008 0
0.4555388 -0.0160509 0.4290721 0
-0.2452184 -0.0554657 0.5147241 0
0.2202346 -0.0487754 0.4801483 0
0.3801439 0.3065181 0.0303778 0
0.2528557 0.0230623 0.4094954 0
0.7629108 0.1266399 0.2672109 0
0.2254071 0.1685704 0.2038655 0
0.1093826 -1.3894256 2.9549975 0
-0.1036467 0.1656304 0.1979509 0
-0.3460260 -1.6099408 2.9908326 0
-0.0739251 0.1456988 0.2461130 0
-0.2841913 0.0053537 0.5262321 0
0.2089350 0.2688837 0.1006496 0
-0.0656374 -1.7206337 3.4052789 0
0.2682895 0.1028672 0.2762732 0
-0.1772734 -0.0875728 0.5880496 0
0.0157501 -0.1494079 0.7729804 0
-0.1127890 0.1618325 0.2143542 0
0.6924834 -0.0259071 0.4806167 0
0.5222057 0.2092494 0.1666468 0
-0.1993164 -0.0022193 0.4761007 0
0.5048531 0.1879929 0.2173968 0
0.1448814 0.0142949 0.3724092 0
0.0550898 0.0306277 0.4058153 0
0.5561823 0.1798595 0.1880123 0
0.1546568 -1.3436657 3.1621437 0
0.1461322 -0.1241736 0.5597675 0
-0.1093344 0.0851544 0.3116153 0
0.8854399 -0.1002747 0.5338768 0
0.7618726 0.0747052 0.2782513 0
0.9166725 0.0235795 0.3629060 0
0.9160601 0.0226561 0.4096890 0
-0.1932978 -0.0230445 0.5294147 0
0.8127043 -0.0589096 0.4605581 0
-0.0301977 -0.2356981 0.6547495 0
0.2522185 0.1509858 0.2241283 0
0.2516840 0.1503823 0.2211126 0
-0.1328074 -0.1682238 0.5739785 0
0.7621639 -0.0043325 0.4070230 0
0.4276712 -1.5979874 3.3229275 0
1.2951607 -0.1421389 1.3269711 0
0.9524530 -0.0442384 0.4593245 0
0.4516642 -0.2783406 0.7460078 0
-0.2666864 -0.3402346 0.7165110 0
0.4864778 -0.2519452 0.8109996 0
0.0369094 -1.5506169 3.3194141 0
1.3623607 -0.1553847 1.4177142 0
0.0740122 0.1186286 0.2632275 0
0.5347189 -0.2240647 0.6792685 0
1.6096294 -0.4003308 1.2462316 0
0.5615280 -0.1730379 0.5737917 0
0.9011270 -0.2390051 0.8253464 0
-0.1093836 0.0845463 0.3070680 0
0.3908448 -0.1723189 0.6023344 0
0.1291823 0.0255139 0.3847786 0
-0.1366166 -0.1725422 0.6173615 0
0.4439501 -0.3527952 0.8509686 0
-0.1853350 -0.1285163 0.5245332 0
-0.3342412 -0.1772018 0.6194827 0
-0.2992479 -0.1056434 0.5367240 0
-0.4595207 0.0151569 0.7646134 0
-0.3285556 -0.0001779 0.5821045 0
-0.1041216 -0.1024689 0.6088830 0
-0.4014210 -0.0060456 0.5234251 0
-0.1240157 -0.1213429 0.6299080 0
0.3721887 -0.7103536 1.5173663 0
-0.3238211 -0.1678015 0.5997065 0
0.4844795 -0.0075801 0.4132696 0
0.1872011 0.2725244 0.0825576 0
0.3705363 0.1567420 0.2189961 0
-0.1045762 0.2284547 0.1294972 0
-0.0406220 0.1926578 0.1699433 0
-0.2789198 -0.0439155 0.5424574 0
-0.1111487 0.2335288 0.1473829 0
0.3064276 0.2266686 0.1326129 0
0.2137665 0.1597313 0.2100798 0
0.3204548 0.1147824 0.2696141 0
-0.1746670 0.0079790 0.4435922 0
0.2089115 0.0255443 0.3651682 0
0.8089959 -0.1329118 0.5691501 0
0.8131580 0.0344387 0.3404903 0
0.1913698 0.1116994 0.2716420 0
0.6318249 -0.0954293 0.5249678 0
-0.2847462 0.0456665 0.4323642 0
-0.0782023 -0.1752796 0.7091166 0
-0.2284403 -0.0041556 0.5516469 0
0.2351850 -0.0642495 0.4948226 0
0.2114854 0.1924210 0.1941914 0
-0.0586384 0.0755846 0.3139481 0
-0.1195831 0.2413028 0.2279601 0
-0.0771870 -0.1717566 0.6918398 0
-0.1732468 -0.0477044 0.6098787 0
0.1697748 0.1986270 0.1741468 0
0.7277456 0.1026005 0.2570020 0
-0.0929221 0.2225316 0.1506194 0
-0.7878709 -0.5563310 1.3849562 0
-0.2030982 -0.1328143 0.6102859 0
-0.2804240 0.0061660 0.5109861 0
0.3511779 0.1378172 0.2847748 0
0.0141582 -0.0856571 0.5534424 0
-0.3246910 -0.3306762 0.7292922 0
-0.1967200 0.0174500 0.4288747 0
0.8900418 -0.0536214 0.4538433 0
-0.1689744 -0.1295952 0.6643722 0
-0.0253024 0.1816443 0.1943626 0
0.3639705 0.2859035 0.0708047 0
0.1986737 0.1804945 0.1874173 0
0.3959508 0.3135467 0.0412478 0
0.1900705 0.2262111 0.1704304 0
0.1830165 0.1641420 0.2009126 0
0.1194311 0.1876467 0.1557794 0
0.3217528 0.1376302 0.2484177 0
0.2552449 0.2673791 0.0844852 0
0.0745302 0.2285834 0.1464283 0
-0.1124199 0.2337331 0.1514946 0
0.2311477 0.1690213 0.2143559 0
0.3942056 0.1962656 0.1812937 0
0.1703284 0.1993435 0.1761589 0
0.1159567 0.2374940 0.1334250 0
-0.0987493 0.1698959 0.1927703 0
0.3870901 0.1948416 0.1746549 0
0.5464891 0.0582706 0.3428487 0
-1.2884988 -2.3752921 4.0442162 0
0.1753580 -0.0746385 0.4971422 0
-0.0949100 0.1491002 0.2410179 0
0.2234438 0.0528575 0.2852178 0
0.3856263 0.1195813 0.2573146 0
-0.3382640 -0.2405065 0.6579306 0
-0.1065250 -0.2410125 0.6429064 0
0.0748210 0.2299170 0.1522973 0
0.0562436 0.0249083 0.4218435 0
-0.5945309 -1.6658666 3.2034485 0
-0.0419204 -1.4951855 2.9904435 0
0.8050662 0.0927920 0.2799127 0
0.2719485 0.1183110 0.2668740 0
0.3362513 -1.5724046 3.6526630 0
0.2837568 0.1062665 0.2739034 0
-0.1282193 -0.2072046 0.5081384 0
0.4388204 0.1439145 0.2380369 0
0.8529494 -0.0193258 0.3810234 0
0.1488419 0.0084421 0.4000264 0
-0.1502317 -0.0981227 0.5682179 0
0.6819403 -0.0711892 0.5472479 0
-0.6376417 -3.0683422 5.6451211 0
-0.4990051 3.0787048 7.4470062 0
0.0212675 0.1516134 0.2228750 0
-0.0775681 -0.2385260 0.7212113 0
0.4421565 0.2652348 0.0834733 0
0.9111940 -0.0665349 0.4798698 0
0.7689051 0.0157866 0.3939046 0
0.2201563 -0.0452440 0.4407758 0
1.1152309 -0.4191505 1.1500993 0
0.6457462 -0.2561305 0.7490368 0
0.5671674 -0.3342446 0.8584144 0
-0.3022633 -0.2142832 0.6486261 0
0.4330096 -0.3953460 0.9706759 0
-0.1465077 0.1179723 0.2916932 0
-0.1479143 -1.3171275 2.5948091 0
-0.0195229 -0.0842372 0.5380931 0
-0.2069520 -0.0465259 0.5670758 0
-0.3915377 0.0105558 0.6359923 0
0.3041036 -0.2987976 0.8267514 0
0.0360828 -1.4056969 3.0215805 0
-0.2536694 -0.0264139 0.5483226 0
-0.2914169 -0.1349125 0.5550647 0
0.1067588 -0.0965115 0.5250525 0
-0.4240706 -0.0034831 0.5298176 0
-0.4005662 -0.1077166 0.5757912 0
0.2141310 0.1598454 0.2106360 0
0.0638826 0.0218541 0.4308581 0
-0.1481918 0.0587734 0.3458327 0
0.0643095 0.2617373 0.0822108 0
-0.2148419 -0.1678608 0.6392483 0
-0.2991254 -0.1397066 0.5726861 0
-0.3040368 -0.0557250 0.5005282 0
0.5743502 -0.2816288 0.7592885 0
0.0854583 0.1532096 0.2192630 0
-0.0818763 0.1419137 0.2431112 0
-0.0604203 0.2036742 0.1957895 0
-0.0025924 0.1666922 0.2004067 0
0.0482412 0.1324440 0.2484494 0
0.3152817 0.1629548 0.1903874 0
-0.2489947 -0.0797320 0.5345536 0
0.2561932 0.2330924 0.1237112 0
0.7092173 0.0268961 0.3482682 0
0.4789293 0.0840007 0.3760026 0
0.4329534 0.2643193 0.1463957 0
0.2771446 0.1002839 0.2921347 0
0.2954738 0.1681918 0.2453542 0
-0.0510298 0.1214367 0.2530108 0
-0.2955488 -0.1366494 0.5141318 0
-0.1503298 -0.0987707 0.6160242 0
-0.3151995 -0.0614293 0.5130595 0
-0.1576226 0.1525212 0.2064369 0
0.0156802 0.0814621 0.2710278 0
-0.0963604 0.1511046 0.2399255 0
-0.1872488 0.1410959 0.2666099 0
0.0107480 0.1576301 0.1871878 0
-0.4165728 -0.0557628 0.5603430 0
0.1155363 0.2369173 0.1306431 0
-0.2158355 0.1942171 0.1975569 0
0.4055950 -0.0962309 0.5074289 0
-0.4284567 -0.2204324 0.6208774 0
-0.4325911 -0.0638107 0.5928955 0
-0.4147084 -0.0234957 0.5779586 0
-0.2103090 0.2097299 0.2073279 0
-0.2049288 0.2068612 0.1950397 0
0.3743910 0.1923696 0.1592674 0
-0.2353787 0.1997005 0.2389765 0
-0.2667845 -0.0306258 0.6872435 0
-0.2559657 -0.1904611 0.7184135 0
-0.2646593 -0.0427859 0.4214385 0
-0.2741553 -0.0368766 0.5378777 0
0.1073580 0.2312135 0.1092770 0
-0.0220081 0.1167993 0.2542434 0
-0.0410840 0.2296341 0.0646576 0
-0.2027541 0.2048315 0.1899780 0
-0.0435151 0.1933037 0.1629867 0
0.3153870 0.1493530 0.2125363 0
0.0818214 0.2356434 0.1254109 0
0.1925786 -0.0238096 0.4115227 0
0.5691117 0.1827732 0.1636479 0
-0.1103589 0.1048266 0.2712215 0
-0.2059035 0.2089079 0.2001965 0
0.5019228 0.0790936 0.3201700 0
-0.1201589 0.2647759 0.1227567 0
-0.0658722 0.1507215 0.1748106 0
0.3140447 0.1549786 0.2545570 0
-0.1337607 0.2526240 0.2342408 0
0.6982444 -0.2273048 0.7079384 0
-0.2890341 -0.0472998 0.5860321 0
-0.0002511 0.1647307 0.2316442 0
0.1716258 0.1990608 0.1743838 0
0.7585312 0.0644930 0.2995944 0
0.2237290 -1.2170044 3.0920978 0
-0.0937715 0.0690250 0.3451877 0
0.4501496 0.2678595 0.0909864 0
-0.0890968 0.1538399 0.2389614 0
0.1339875 -1.2277349 2.9140625 0
1.3194610 -0.5249101 1.4105548 0
-0.0938548 0.0722371 0.3692386 0
0.2976421 0.2403551 0.1164584 0
-2.8860033 -3.4031334 5.8923125 0
0.5445582 -0.0355180 0.4483166 0
-0.8639303 -2.0375721 3.9717755 0
0.3921703 0.0763025 0.3209961 0
-0.1907654 -0.2617062 0.6892058 0
0.4559809 0.0981714 0.3061536 0
0.1878121 -0.0323484 0.4561795 0
-0.1982817 -0.3154977 0.7825996 0
0.2071435 -0.0319827 0.4425697 0
0.4821768 0.0950428 0.3103085 0
0.4701186 -1.2984204 2.8733928 0
0.1995245 -0.0308565 0.3347598 0
-0.0888687 -0.0721985 0.5840502 0
0.5000595 -0.4085355 0.9760379 0
-0.2625510 -0.0053429 0.5333590 0
-0.3426199 -0.0604047 0.5317670 0
-0.2876194 -0.0543729 0.5114524 0
0.0088109 -0.0087440 0.2665967 0
-0.0428506 -1.4186354 2.8481266 0
0.3753872 -0.2910056 0.7557561 0
0.3769341 -0.2913555 0.7557675 0
0.2035208 -0.1535967 0.5951988 0
-0.0748303 -0.1745749 0.7080000 0
0.5776737 0.0372874 0.3721036 0
0.3811631 0.1069381 0.2989476 0
0.1553692 -0.0370374 0.4866273 0
0.5234191 -0.0564801 0.4715184 0
-0.3690512 -0.3033261 0.7069760 0
0.3853019 0.1183774 0.2780955 0
0.4964340 -0.1421436 0.5836707 0
0.4339486 0.0898773 0.2715379 0
0.5048153 -0.1448845 0.5973215 0
0.4055395 0.0756304 0.3250873 0
1.0560184 -0.8448548 1.7173802 0
0.5517558 0.0614912 0.3684994 0
0.6640898 -0.0646459 0.4914321 0
-0.3498478 -0.3064307 0.6857913 0
0.2579876 -0.0066661 0.4037603 0
0.0404487 0.0114862 0.4001940 0
0.1157226 0.0851855 0.2957171 0
0.6609620 -0.0474515 0.4712038 0
0.7783737 -0.1205378 0.5631509 0
0.1813493 0.1025246 0.3162475 0
1.0663856 -0.7779109 1.5942770 0
0.6628450 -0.0805486 0.4853870 0
0.2565853 0.0528003 0.3486450 0
0.1164429 0.0853979 0.2981354 0
-0.2858617 -0.3065962 0.6818586 0
0.5155609 -0.6019844 1.3300197 0
-0.2512870 -0.0604458 0.5315221 0
0.6141379 -0.1958777 0.6399835 0
0.1102439 -0.0539591 0.4752598 0
0.7733127 -0.8293985 1.5910763 0
0.3800751 -0.2582657 0.7012797 0
0.2586154 -0.1352436 0.5692241 0
-0.1208343 -0.1127445 0.5979549 0
0.3758145 -0.0402917 0.4593926 0
0.3103206 -0.0060736 0.5817316 0
-0.7331317 1.9301584 7.7775421 0
0.1569032 -0.0398010 0.4943267 0
-2.1955848 1.6213948 6.2433314 0
0.1579893 -0.0413647 0.5019797 0
0.1578816 -0.0399245 0.4915194 0
-0.1731880 -0.0821771 0.5687630 0
0.2522905 -0.1314288 0.5485873 0
0.2093428 0.0246468 0.3692432 0
0.2753871 0.0454625 0.1354693 0
0.2945152 0.1579729 0.4373573 0
0.2092811 0.0246880 0.3689292 0
0.2733956 0.1012498 0.2920939 0
0.1688289 -0.1175341 0.4255354 0
0.3883008 0.1571433 0.3603961 0
0.1017599 -0.1431011 0.5842542 0
0.0676802 -0.0975865 0.5715117 0
-0.1849894 -0.2061736 0.6061806 0
0.7440151 -0.1316769 0.5718878 0
0.4286358 -0.0218491 0.4436878 0
-0.1884213 -0.2081078 0.6160836 0
-0.1026356 0.0795578 0.3419006 0
1.0987440 -0.8951883 1.8185613 0
0.3213154 -0.0441162 0.4597033 0
0.0435213 -0.0602642 0.4904728 0
-0.2087892 -0.1639522 0.6539854 0
0.3613769 0.0630669 0.3322522 0
0.0717277 0.0318146 0.3715702 0
0.1629747 -0.1631223 0.5973889 0
0.2172217 -0.0972047 0.5345405 0
0.3848476 0.1184690 0.2822390 0
0.1943953 0.0788173 0.3482281 0
0.1575443 -0.0380713 0.4948400 0
0.1763769 0.1015698 0.2888430 0
0.1884128 -0.0809866 0.4591869 0
0.2715401 -0.7071397 2.2674007 0
0.3155500 -0.0787818 0.4892736 0
0.3166454 0.1141984 0.2754184 0
0.1735341 -0.0698311 0.4710488 0
0.1631710 -0.1624718 0.5962020 0
0.2010655 -0.0890678 0.5327314 0
0.3890425 0.1198002 0.2859567 0
0.1805546 0.1104427 0.3022721 0
0.1603254 0.0917526 0.3596055 0
0.0491797 0.2975174 1.2870839 0
0.5882978 -0.2482731 0.7172613 0
0.5903109 -0.1470442 0.5737055 0
0.4318621 -0.1927136 0.6653994 0
0.2190131 0.0805303 0.3134097 0
-0.0598865 -0.1035906 0.6509352 0
0.3844119 0.1179695 0.2826176 0
0.1916815 0.1006964 0.2711509 0
0.1713512 0.0984090 0.2771352 0
0.1579717 0.0885080 0.3527741 0
0.2249926 -0.0553540 0.4752649 0
0.0752890 0.0360235 0.3847818 0
0.4068307 -0.6545822 1.3703294 0
0.4098642 -0.2230567 0.6430425 0
0.0090416 -0.0578688 0.4237084 0
-0.2371121 -0.1088756 0.5500167 0
-0.2196356 -0.0002073 0.5488286 0
-0.2360989 -0.0217197 0.5500634 0
0.4919508 0.0775425 0.3140954 0
0.2306679 -0.0567402 0.4786406 0
0.4187309 -0.1861154 0.6423284 0
-0.0862939 0.0801443 0.3224065 0
-0.0942614 0.0807139 0.3541770 0
0.0629416 -0.0851704 0.5508856 0
0.5415497 -0.1046352 0.6460886 0
0.1187409 -0.1986111 0.6290259 0
0.3742105 0.1219924 0.2975651 0
0.2505623 0.0215735 0.4080416 0
0.2164691 -0.0523066 0.4732257 0
-0.0724671 -0.3786700 1.1844585 0
-0.1485284 -0.0437411 0.5907334 0
-0.2223619 -0.0425563 0.5688984 0
0.4134535 -0.1892959 0.6532676 0
0.3105063 -1.2200608 2.7668428 0
-0.1601667 -0.0636583 0.5882248 0
0.1541656 0.0861004 0.3437251 0
0.1025427 0.0167320 0.4159589 0
0.1585282 -0.0403633 0.5018224 0
0.0335237 -0.0743133 0.5023560 0
0.0684580 0.0223134 0.4237292 0
-0.1043725 -0.1309871 0.6364813 0
0.5698726 -0.1534596 0.5733320 0
0.6114177 -0.1932530 0.6786567 0
-0.1589702 -0.1000510 0.6182782 0
0.2076880 0.0212956 0.3732614 0
0.2444206 0.0192208 0.3831113 0
0.1564591 0.0892090 0.3484832 0
0.5781558 -0.1748842 0.5620703 0
0.3292353 -0.3398657 0.9354347 0
0.7114083 -0.5495225 1.1809157 0
0.2278232 -0.0562227 0.4638628 0
-0.0055082 -0.0137274 0.4494354 0
0.2514136 -0.6539769 1.9770550 0
0.1962222 0.1050230 0.2919114 0
0.5929148 0.0152726 0.3881471 0
0.1916272 -0.1164535 0.5470559 0
-0.0013454 -0.0260578 0.4540169 0
0.1291537 0.0804859 0.3182802 0
0.0378299 -0.0356865 0.4530981 0
0.0374664 -0.0353759 0.4493477 0
0.0395508 -0.0348594 0.4426707 0
-0.5449776 -1.3706753 3.2588599 0
0.2132178 0.0561045 0.1759626 0
0.2911181 -0.1845833 0.6346087 0
0.2846587 0.1069946 0.2833951 0
0.0748669 0.0366794 0.3931380 0
0.5359374 -0.1536975 0.6398501 0
0.0036666 0.0848553 0.2962052 0
0.2058187 0.0781154 0.3056413 0
0.2195055 -0.9364162 2.6307914 0
0.1412216 -1.2187786 3.0785599 0
-0.1674502 -0.0073404 0.5357574 0
1.0160878 0.2280240 1.6623675 0
0.3704006 -0.0346409 0.4233551 0
0.3651463 -0.0292081 0.4413393 0
0.2067159 0.0785931 0.3068822 0
1.0201133 0.2274927 1.6699272 0
0.0836485 0.0003955 0.4388585 0
0.0105918 0.0910531 0.3292544 0
0.4893397 -0.5669944 1.2488639 0
-0.0045985 -1.1723543 3.1341426 0
0.2259198 0.0919154 0.2877542 0
0.1031299 -0.0150245 0.4525716 0
-1.2440286 -2.0397317 4.2376380 0
-0.1694190 -0.0360277 0.5714995 0
-0.1869477 -0.1334671 0.6233077 0
0.2833166 0.0420774 0.3994792 0
0.3612315 -0.0294872 0.4368744 0
0.0759955 0.0359633 0.3860462 0
0.1544783 -0.0380633 0.4926220 0
0.0501476 0.0595674 0.3603123 0
0.1013143 -0.0145942 0.4443391 0
0.3259272 -1.0998317 2.4889519 0
-0.2668863 -1.3045546 3.2081754 0
0.1052443 -1.4540280 2.9656227 0
-0.2189886 -0.1100081 0.5879003 0
-0.3052147 -0.3489400 0.8278889 0
-0.2771242 -0.2125529 0.6617779 0
0.4619237 -0.2234905 0.7671700 0
0.0394582 -0.3219441 1.0260508 0
-0.1836118 -0.0069468 0.5459741 0
-0.1097085 -0.1086013 0.6398826 0
0.0571377 0.0227480 0.4197881 0
0.1736947 -0.0263573 0.4784356 0
-0.1612183 -0.0616717 0.5991419 0
-0.1326934 -0.1199945 0.7017600 0
0.0735771 0.0365662 0.3897151 0
-0.1484317 -0.2204215 0.6641254 0
-0.2312371 -0.0010739 0.5755036 0
0.2089957 -0.0026042 0.4225082 0
1.5518594 -0.8633496 1.9234359 0
0.2100591 0.0779872 0.3105019 0
0.0565579 0.0252840 0.4131639 0
0.1931462 -0.0222006 0.5938372 0
-0.0669334 -0.1956965 0.7853443 0
0.0578079 0.0225571 0.4202836 0
0.0569543 0.0228835 0.4204198 0
-0.1222386 -0.1510536 0.6506869 0
0.0182725 -0.3340453 1.1829270 0
-0.0752255 -0.4121283 1.3716149 0
-0.4535730 -0.4334380 0.9076993 0
-0.1350778 -0.1803199 0.6592169 0
0.0702143 -0.0945012 0.5461935 0
-0.0777618 -0.1724380 0.7406300 0
0.0402767 -0.3194438 1.0336943 0
-0.0690097 -0.3996693 1.3240341 0
-0.4529507 -0.4332763 0.9074497 0
-0.1740599 -0.1843649 0.6102574 0
-0.2217208 -0.1297896 0.5825228 0
-0.1727414 -0.3030583 0.8164808 0
-0.1906644 -0.1482031 0.6599569 0
-0.3095971 -0.2098631 0.6466526 0
-0.1259284 -0.1757494 0.7047574 0
0.0369461 -0.3337190 1.0958620 0
-0.1159846 -0.0794636 0.6226634 0
-0.2927306 -0.3564842 0.7656792 0
0.4036763 -0.2753243 0.7468193 0
0.1489355 0.0078294 0.4077119 0
-0.2276442 -0.1313317 0.5845907 0
0.5316396 -0.1300696 0.5808983 0
0.3074947 -0.0858478 0.5143727 0
0.0409830 0.0110802 0.4031572 0
-0.2767164 -0.1902791 0.6970539 0
0.1121483 -1.6853868 3.5920861 0
-0.3146748 -1.5046598 3.7049992 0
0.4161582 -0.0119586 0.4268841 0
-0.0381965 -1.4544777 2.9179487 0
0.1814131 -0.1874275 0.6532823 0
0.1541258 0.0108521 0.3947699 0
0.4150355 -0.1844653 0.6352342 0
0.4578811 -0.0753965 0.5013554 0
-0.0781913 -1.3979623 3.2923067 0
0.0718039 -0.0903600 0.5196030 0
0.1577867 -0.1245084 0.6042335 0
0.2207413 -0.1529148 0.6026893 0
-0.1863750 -0.1337379 0.6282287 0
0.6181914 -0.1578757 0.6081355 0
-0.1469842 -0.0573203 0.5901007 0
-0.0610216 -0.1927785 0.7796978 0
-0.1176959 -0.0715806 0.6054670 0
-0.2265860 -0.0481550 0.5524958 0
