# .PCD v.7 - Point Cloud Data file format
VERSION .7
FIELDS x y z rgb
SIZE 4 4 4 4
TYPE F F F F
COUNT 1 1 1 1
WIDTH 1430
HEIGHT 1
VIEWPOINT 0 0 0 1 0 0 0
POINTS 1430
DATA ascii
-0.2405922 -0.1031082 0.4247626 0
-2.8369703 -1.4375929 2.9369578 0
0.3034085 0.0335520 0.4188239 0
0.1696339 -0.2813566 0.8004923 0
0.0251760 0.0385629 0.4374619 0
0.1507705 -0.3070678 0.7981539 0
0.4639209 -0.1178140 0.5980299 0
-1.0445621 -1.3286253 2.9108400 0
-1.0136333 -1.1932540 2.7234514 0
0.0283100 -0.3811911 0.9341326 0
0.3510822 -0.2978047 0.8182878 0
0.2626109 -0.0999247 0.7964222 0
-0.2810694 -0.1110404 0.5864356 0
-0.4573345 -0.1399984 0.7613599 0
0.3293051 -0.0378482 0.5096954 0
0.4993256 -0.2753077 0.7863864 0
-0.0386872 0.0178718 0.4497172 0
-0.0440221 0.0304764 0.4938760 0
-0.1269265 -0.0822787 0.5574197 0
-0.1232951 0.0000066 0.4671193 0
0.4386729 -0.2877876 0.8285207 0
-1.5858387 -2.1640143 3.9007704 0
-1.0632720 -1.4390712 2.6201406 0
-0.0981913 -0.5289575 1.2093408 0
-1.5937810 -1.1726447 2.9844410 0
-3.4701533 -1.4257317 3.2990751 0
-0.0936739 0.0459117 0.4429273 0
0.3759590 -0.1775644 0.6981316 0
-0.2575116 -0.0089936 0.5577261 0
-0.2500035 -0.5816647 1.2623667 0
-0.0281635 -0.1115065 0.6001580 0
0.1499853 -0.1884961 0.6969277 0
0.3689038 0.0526630 0.4211963 0
0.1304240 -0.7819363 1.6647493 0
-1.7565411 -1.5334232 2.8872795 0
0.5026020 -0.1180976 0.6164235 0
-0.3974904 -0.2303454 0.8724765 0
0.2731791 0.0730745 0.3821984 0
0.1725932 -0.3227915 0.8301952 0
0.1404151 -0.3424633 0.8950737 0
0.0757642 -0.1377408 0.6255015 0
-0.6051094 -0.2587896 0.9126268 0
-0.0633335 -0.0886491 0.5626043 0
-0.1200596 -0.1139141 0.5949479 0
-0.2120856 -0.2430620 0.7715490 0
-0.0892044 0.0359014 0.4503342 0
-0.1434476 -0.0357491 0.4900700 0
-0.1284542 -0.0804290 0.5581973 0
-0.5381297 -0.3129743 1.0853660 0
0.4516594 -0.1230749 0.6151760 0
0.0744845 -0.1771455 0.6751435 0
-0.3148605 -0.2207102 0.8879308 0
-0.0311855 0.0240963 0.4327472 0
-0.1559571 -0.0735416 0.5708195 0
0.0968228 -0.0701726 0.5589754 0
-0.1247527 0.0008757 0.4636248 0
-0.1702799 0.0843481 0.3781022 0
-2.0134614 -1.1943265 3.0229325 0
0.3725275 -0.1275125 0.5885403 0
0.5485536 -0.1851892 0.6905450 0
0.1006429 0.0443906 0.4449337 0
0.1832130 -0.3440886 0.8741718 0
0.1036006 -0.3711622 0.9123340 0
0.2246962 0.0442642 0.3656703 0
0.3345399 0.0312055 0.4208107 0
0.0064049 -0.0676117 0.5585439 0
0.3820841 -0.1762585 0.7065717 0
-0.1014703 0.0911249 0.3519402 0
0.1346858 -0.3610969 0.8937155 0
-0.0368452 -0.0355918 0.5393521 0
-0.0383185 -0.3018495 0.8756096 0
-0.0599633 -0.0449191 0.5517824 0
0.1828737 -0.3425513 0.8688994 0
-1.4579858 -1.2158015 2.9368558 0
-0.1598810 -0.0751451 0.5440260 0
0.8469691 -1.0779769 2.1167371 0
-0.0560271 -0.0435522 0.5287769 0
0.1741759 -0.1595606 0.6435316 0
-0.1280662 -0.0669618 0.5318800 0
0.3773490 -0.0287921 0.4993902 0
0.1337551 -0.0901460 0.5683331 0
-0.0892768 0.0398463 0.4595285 0
-0.6560326 -0.6886303 1.8797042 0
0.4546957 -0.1118279 0.5777557 0
-0.5284679 -0.2956737 1.0411030 0
-0.4391118 -0.4750748 1.3181076 0
-0.2372646 0.0062766 0.5020025 0
0.0734094 -0.1387391 0.6282617 0
0.0220733 -0.2539028 1.2310185 0
0.4557748 -0.1241789 0.6180941 0
-0.1512045 -0.0794089 0.5784326 0
-0.0366242 0.0266194 0.4426075 0
0.2886956 -0.2481733 0.8078312 0
-0.6462965 -1.7696204 2.7608380 0
0.4478209 -0.7093019 1.6280222 0
-0.1147546 -0.1137035 0.5862594 0
0.1822500 -0.3148722 0.8351883 0
-0.2605442 0.0194153 0.4372207 0
-0.1084037 -0.1040599 0.5689244 0
-0.2134729 -0.6351957 1.3194270 0
-0.1581314 -0.0776633 0.5629360 0
-0.1655987 -0.5823663 1.3237520 0
-0.0264108 -0.3063743 0.7774356 0
-0.4903986 -0.1670134 0.7530059 0
-1.1998740 -2.4376752 4.4878774 0
-1.0448107 -0.8096266 2.4717638 0
0.3869742 -0.1823010 0.7251156 0
0.0841772 0.0908044 0.4040979 0
-0.1209184 -0.0870387 0.5565309 0
0.1643315 -0.3296595 0.8685131 0
-3.5151596 -1.4527639 3.3525748 0
0.4456358 -0.1233541 0.6093809 0
0.0829716 0.0884820 0.4006771 0
-0.4508641 -0.0929920 0.6766511 0
0.4032961 0.0369331 0.4188337 0
-0.1599063 -0.1896435 0.9038656 0
-1.8879309 -1.5317322 2.8529596 0
0.2554994 -0.0662704 0.5655994 0
-0.0977301 -0.3526063 0.8848928 0
-0.5160516 -0.2906511 1.0798833 0
0.4231269 0.0653267 0.4276394 0
0.3704190 0.0516911 0.4209400 0
-0.0314894 -0.1165500 0.6019673 0
0.0416911 -0.0133064 0.4793284 0
0.3385677 -0.2928303 0.8364878 0
0.3477522 -0.2617451 0.8000592 0
-0.2264670 0.0022900 0.4650826 0
-1.8310970 -1.0176966 2.8645105 0
-0.9513761 -0.9063976 2.5148361 0
0.0987115 0.0217002 0.4850074 0
0.3861903 -0.1257319 0.6157776 0
-0.2927866 0.1810653 0.4708577 0
-0.2705559 0.0208407 0.4514641 0
-2.6786051 -1.7359781 2.7881494 0
-0.0503274 -0.1044729 0.5869427 0
-1.4220629 -1.3791302 2.7812674 0
-0.6675148 -0.3412894 1.1855370 0
0.0139758 -0.3962500 0.9384224 0
-0.0641241 -0.0417145 0.5498782 0
-0.3715005 -0.2081915 0.8130425 0
0.2940584 0.1258631 0.3369349 0
0.1579226 -0.1287746 0.6228182 0
0.5540564 -0.1878226 0.6987047 0
-1.1063527 -1.6758955 2.8422010 0
0.0239917 -0.2841151 0.8261209 0
0.2015947 -0.1720002 0.6622490 0
-0.0347631 -0.1148273 0.5996069 0
0.1047695 -0.2764967 0.8244409 0
0.1031362 0.0504952 0.4326045 0
0.3679397 -0.2197315 0.7239673 0
0.2875382 0.0768163 0.4030643 0
-0.4947786 -0.1901660 0.7929810 0
-3.6217752 -1.6150200 3.4677980 0
-1.0970495 -0.8444773 2.5799227 0
0.0110956 -0.3993316 0.9466116 0
0.6694663 -0.3143411 0.9931664 0
-0.5575396 -0.1337402 0.5974637 0
-0.2470798 -0.0497229 0.4717017 0
1.1180010 -1.0758779 2.5624321 0
0.1590283 -0.0120021 0.4761263 0
0.1338852 -0.3666281 0.9104568 0
-1.7908928 -1.0009223 2.8072276 0
-1.2375306 -1.2175239 2.9047461 0
0.0071886 0.0260615 0.4211236 0
-1.1189352 -1.1026993 2.6219711 0
0.2404224 -0.0245968 0.4888823 0
0.2104146 0.1271009 0.3621575 0
-0.4097835 -0.1043635 0.7239349 0
0.4327196 -0.0447158 0.5264330 0
-0.0483733 -0.1047877 0.5754976 0
0.2372334 -0.1027338 0.5678013 0
-1.3968906 -1.1188596 2.7997689 0
-0.0026902 -0.0537081 0.5373738 0
0.3956733 -0.2845719 0.8275034 0
-0.1014471 -0.1056424 0.5574899 0
-0.5891386 -0.2008740 0.9197596 0
-0.0403628 -0.1213457 0.4652632 0
-0.8777768 0.5087034 2.0292778 0
-0.2794637 -0.1119567 0.5897943 0
-0.1392066 -0.1953280 0.6986899 0
-0.3080326 -0.0860006 0.5594373 0
-0.1719584 -0.1248552 0.6001294 0
-0.2343646 -0.4661618 1.2203411 0
-2.7475083 -1.6525196 3.3315070 0
0.2759430 -0.0926508 0.5755347 0
-0.0686501 -0.1782303 0.6565129 0
0.4384377 -0.0438042 0.5329147 0
-0.2593888 -0.1257763 0.6196587 0
-0.4069959 -0.2079651 0.8641512 0
0.4109677 -0.1833072 0.7149934 0
0.0492906 -0.3757017 0.8982676 0
0.2571173 -0.1989633 0.6484327 0
0.2116098 -0.0553177 0.5305474 0
-0.4433593 -0.2621917 1.0063713 0
-0.2934294 -0.0804943 0.5536088 0
-0.1768554 -0.2581713 0.7812608 0
-0.0616953 -0.1992528 0.6946126 0
-0.4776182 0.0087156 0.5621660 0
-0.6883768 -0.1329185 0.5386729 0
0.5877066 -0.2309338 0.7350492 0
-0.1169246 -0.0495112 0.5395337 0
0.2869641 -0.2451311 0.7907423 0
0.2261566 -0.3081594 0.8316428 0
0.3081830 -0.3221843 0.8658612 0
-0.5409421 -0.0054380 0.5206996 0
-0.0199008 -0.2818378 0.8058264 0
-0.1249785 -0.4100437 1.0250902 0
1.4326171 -2.6369073 4.3180051 0
-0.1295016 -0.0900259 0.5306438 0
0.4928869 -0.1633123 0.6767429 0
0.0811088 0.0450354 0.4514826 0
0.4356993 -0.6922002 1.5860702 0
-0.1244157 -0.0846340 0.5560387 0
0.0063827 -0.0734017 0.5440640 0
-2.6079755 -1.4311169 3.0388823 0
-0.2077917 -0.0190274 0.5132234 0
1.1443298 -1.1473099 2.2784586 0
-0.6267137 -0.8341375 1.8662008 0
0.0635721 -0.0328069 0.5197520 0
0.0455015 -0.0161210 0.4788395 0
-0.2533668 -0.5325082 1.3175428 0
0.0715132 -0.1722372 0.6768609 0
-3.3393846 -1.3292934 3.1710401 0
0.1356976 0.0082271 0.5508943 0
-0.9088014 -1.5564904 3.2637358 0
-1.0595638 -1.7041777 3.4548573 0
-0.1742148 -0.0819644 0.5741736 0
-0.3030456 -0.0490069 0.5167392 0
-3.0585949 -1.2204264 2.9252810 0
0.4778751 -0.1809589 0.6625755 0
-0.0038821 -0.0521549 0.5392822 0
-1.3642813 -1.3863008 2.4807074 0
-0.2655688 0.0187884 0.4501062 0
-1.0577713 -1.3389468 3.0141952 0
0.3902989 -0.1254289 0.6077342 0
0.4336871 -0.6835216 1.5631478 0
-0.3805256 -0.2089649 0.8714043 0
-0.4084244 -0.0054826 0.4858004 0
0.4375728 -0.2632275 0.8110679 0
0.1801881 -0.3360603 0.8575103 0
0.3758215 -0.1744490 0.6923180 0
-0.1845528 -0.1124004 0.5945293 0
-0.1151439 -0.0581952 0.5432265 0
-0.0596383 -0.1548485 0.6356540 0
-0.3431152 0.0174770 0.4609343 0
-0.2203795 -0.0845492 0.5654685 0
-0.5087466 -0.0658531 0.5884862 0
0.2780150 -0.0783450 0.5683977 0
1.0126987 -0.8277190 1.6348599 0
-0.0339231 -0.1494319 0.6394477 0
0.2791365 -0.7487670 1.6375948 0
-0.1113582 -0.0568645 0.5310879 0
-2.6573422 -1.6114938 3.2275665 0
-0.1538254 -0.1509260 0.7735851 0
0.1014294 -0.1258080 0.6650457 0
-2.9597361 -1.5057449 3.4428077 0
-0.0944510 0.0821033 0.3316865 0
-0.2767187 -0.3258592 0.6038370 0
-0.0875840 -0.1452521 0.6024647 0
-0.0488466 0.0497483 0.4190258 0
-1.2284123 -2.1572518 4.5518403 0
-0.5135736 -0.0194922 0.5373250 0
-0.1891139 -0.0786527 0.5703909 0
-2.5019755 -1.1761644 3.1023352 0
0.0399733 -0.0122313 0.4760290 0
-0.1628369 -0.0729975 0.5316182 0
-1.5914057 -1.1261255 2.2405648 0
0.2438651 0.1179920 0.3428525 0
0.1819708 0.0293043 0.4455409 0
-0.6082692 -0.3345504 1.1610459 0
-0.0642142 -0.0435275 0.5631625 0
0.1073021 0.0050333 0.5058793 0
-2.0681820 -1.0638709 2.8917391 0
-3.1412032 -1.6081613 2.9651299 0
0.0931732 -0.2398733 0.7369347 0
0.4193854 -0.0479830 0.5101382 0
0.3246919 -0.3095331 0.8786433 0
0.2663189 0.0510963 0.4313160 0
0.0577359 0.0512345 0.4020665 0
3.5650465 -3.6367738 7.2979422 0
1.0135370 -0.8258701 1.6320817 0
-0.1077257 -0.5413495 1.2328925 0
0.4831316 0.0015847 0.5273618 0
0.0420874 -0.1289471 0.6125470 0
-0.0584751 -0.0448888 0.5390281 0
-0.1502986 -0.0331690 0.4892009 0
3.0007339 -5.5229187 9.7153025 0
-0.2383387 0.0062964 0.4988443 0
-0.0590016 -0.1547233 0.6394627 0
0.1317097 0.0504073 0.4022403 0
0.3397594 -0.2560291 0.7742830 0
1.2125626 -3.1954083 6.2168012 0
-0.9548748 -2.1357291 4.3932996 0
0.0241209 -0.1972025 0.7073129 0
-1.3111866 -1.1824088 2.5937309 0
0.1050080 -0.2478382 0.7689463 0
-0.1985470 -0.0785654 0.3878324 0
-0.1902176 -0.0780854 0.5718320 0
-0.0334266 -0.3908105 0.6452211 0
-0.0656449 -0.2143073 0.7136047 0
-0.1690912 -0.2144812 0.7242699 0
1.0152971 -1.0021747 2.3579593 0
4.4592977 -4.4963346 9.0377178 0
0.0402837 -0.0123582 0.4944703 0
0.0904888 0.1005401 0.3988877 0
0.0087063 -0.1791278 0.6906551 0
3.1273322 -5.6349254 9.3260670 0
0.1270628 -0.7440726 1.5794530 0
0.3605826 0.0900876 0.4004824 0
1.8239816 -4.9236541 9.6625080 0
-0.9921131 -1.8105445 2.9929140 0
0.1068405 -0.1055764 0.5965276 0
0.1961502 -0.0437588 0.5220307 0
-1.3511854 -1.3373336 2.8751090 0
-0.0404572 -0.2942977 0.8387244 0
0.2571387 -0.2660635 0.7973806 0
-0.6933876 -0.6248372 1.8787482 0
-0.0434535 -0.3650924 0.8956259 0
0.1407379 0.0159384 0.4805909 0
-0.1980169 -0.1902316 0.6829575 0
-0.1398323 -0.0970887 0.4681781 0
0.1486850 -0.0847526 0.5719047 0
0.4678983 -0.1543696 0.6388419 0
-0.2676214 -0.0925803 0.5457395 0
0.3626454 0.0869616 0.3763601 0
0.1072285 -0.2481687 0.7709416 0
-0.2343659 0.0055480 0.4955799 0
-0.0134463 -0.2808715 0.8029617 0
0.1079850 0.0041257 0.5004729 0
-0.0723796 -0.0400947 0.6003653 0
-0.1232141 -0.4569381 1.0739214 0
-1.8167914 -1.5300460 2.8436737 0
0.0550441 -0.3201650 0.8275778 0
-0.5821714 -0.5766753 1.7552853 0
0.2491334 0.1215373 0.3505878 0
-0.0197085 -0.3880708 0.9339936 0
-0.0363353 -0.0965847 0.5701103 0
-0.9524033 -1.4364301 3.1898234 0
-3.4609666 -1.9341886 3.1618524 0
0.4013325 -0.5037301 1.2919104 0
-1.6799241 -1.3009410 3.0842907 0
-0.6610250 -0.3059158 1.0901173 0
0.0592517 0.0849513 0.4294318 0
0.0561471 -0.1498441 0.6437597 0
-0.4779297 -0.0830597 0.6249624 0
-1.5456936 -1.1483545 2.9071307 0
0.0321803 0.0171999 0.4377469 0
-0.1666021 -0.0268873 0.5176526 0
-1.7151660 -1.1503855 2.9628150 0
-0.5974141 -0.2708504 0.9448720 0
0.2523887 -0.1061100 0.6008769 0
-0.4551500 -0.0820820 0.6390313 0
1.2050191 -1.5697906 3.1247127 0
0.1148689 -2.8674588 4.6865945 0
-0.2156471 0.0051102 0.4602408 0
-0.0362642 -0.3312312 0.8540870 0
-0.2759940 -0.0531064 0.5250524 0
0.0833428 -0.2576444 0.8083996 0
0.1563484 -0.1880469 0.6840601 0
-0.0437845 -0.2910914 0.8295773 0
-0.4577478 -2.5951085 4.6700139 0
0.0832524 -0.2623165 0.8043680 0
-0.1951605 -0.0753234 0.6039103 0
1.0488375 -2.9412968 5.7022057 0
-0.2254125 -0.6412686 1.3700995 0
0.7096605 -0.0786014 1.3512980 0
-1.4111446 -1.3752718 2.7812254 0
-0.6982904 -0.3506896 1.2148507 0
0.2900048 -0.2998207 0.8268455 0
0.2543224 -0.7708092 1.2362921 0
0.4194106 -0.1683475 0.7015580 0
-0.7227733 -0.3069044 1.1810212 0
0.0216247 -0.1026498 0.5915188 0
-0.0310582 -0.1187905 0.6006921 0
-3.1113267 -1.6747733 3.2215416 0
-0.3074948 -0.0464112 0.5230091 0
-0.0136555 -0.2817933 0.8060587 0
-0.0172945 -0.1472414 0.6153122 0
0.2460570 -0.3120343 0.8231332 0
-0.0813283 -0.2753409 0.8933290 0
0.4684317 -0.1589631 0.6448620 0
-0.1744473 -0.3427359 0.8598595 0
-0.5850574 -0.0883057 0.6228927 0
-1.4320736 -1.2976974 2.8597541 0
0.0835096 0.0453288 0.4520371 0
-0.6304627 -1.0883001 2.1759994 0
0.0201778 -0.2118593 1.2245810 0
-0.0118149 -0.2565629 1.3183157 0
0.2390473 -0.0973453 0.5839433 0
0.3414923 -0.2908310 0.8374870 0
0.2236461 -0.1026212 0.3927686 0
-0.8683212 -2.1994810 3.4851429 0
0.0860828 -0.2563126 0.7982677 0
0.3288386 -0.0367172 0.5112364 0
-0.3109631 -0.0853467 0.5578040 0
-3.4070365 -2.1847680 3.5125141 0
0.2431328 -0.1026488 0.5829149 0
0.5018216 -0.2663650 0.7759538 0
-0.0987785 -0.3621058 0.9137289 0
0.3412707 -0.2925321 0.7984360 0
-0.0854249 -0.2448807 0.7420582 0
-0.1715965 -0.1254770 0.6021037 0
-0.0258122 0.0489727 0.4201129 0
-0.2140513 -0.6241562 1.3184818 0
-0.0423458 -0.1196743 0.6224793 0
-0.1677600 -0.0644834 0.5547612 0
-1.7628983 -1.4736785 2.7789621 0
-0.0120078 -0.3345892 0.8701240 0
0.2232403 0.1091154 0.3137775 0
0.9694317 -0.6207031 1.6048410 0
-0.0337121 -0.1492276 0.6642196 0
0.4970342 -0.1865413 0.6906724 0
-0.0626741 0.0174399 0.4836282 0
-0.4473737 -2.6148272 4.4825110 0
0.0397820 0.0085275 0.4593789 0
0.2986506 -0.3176324 0.8520025 0
-0.6129555 -0.2625782 0.9255722 0
0.0559999 -0.1115017 0.5838462 0
-0.5107650 -1.0714089 2.0736837 0
-0.0603506 -0.1990666 0.6863130 0
-0.5207444 -0.5679080 1.6049585 0
-0.1020197 0.0902572 0.3543533 0
0.4871028 -0.0998896 0.5854740 0
0.0876296 -0.3029411 0.8219943 0
-0.0395141 -0.0803835 0.5066556 0
0.1825919 -0.3416078 0.8653955 0
0.1693347 -0.1129026 0.6116710 0
0.0499274 0.0855490 0.3942399 0
0.0803832 -0.2571878 0.7854007 0
-0.8242257 -0.6479124 1.8848977 0
-0.4579891 -0.0364179 0.6326540 0
0.0873661 -0.3027168 0.8208955 0
0.1478644 0.0226698 0.6040864 0
-0.0085088 -0.0283003 0.5022203 0
0.3019672 -0.3243895 0.8715042 0
-0.1746365 -0.1177065 0.5968345 0
-2.9480944 -1.4552268 3.4294078 0
0.0579488 0.0515583 0.4038467 0
-0.0546260 0.0154153 0.4314142 0
0.3801380 -0.2251083 0.7496970 0
-1.3683670 -1.0916468 2.7803280 0
0.3214915 -0.0152421 0.4891926 0
0.0319814 -0.3724801 0.9057372 0
0.1844818 -0.3115817 0.8265335 0
-0.1289264 -0.0801600 0.5588189 0
0.0876483 -0.3110314 0.8441972 0
-0.2577347 -0.5428362 1.3465729 0
0.0849243 -0.2629283 0.8151923 0
-0.2793767 -0.1111810 0.5854068 0
-0.6460635 -0.2974438 1.0701301 0
0.1372106 -0.3777379 0.9430196 0
0.0569494 0.0234677 0.4171369 0
0.0255970 -0.3918074 0.9779009 0
-0.0925152 -0.3564021 0.8921977 0
0.3323273 -0.2514494 0.7529997 0
-0.5640840 -0.2519399 0.8910962 0
-0.0335796 -0.1156325 0.5983112 0
-0.0941389 0.0478809 0.4664713 0
0.1832956 -0.3406684 0.8681598 0
0.0329106 -0.1188381 0.6095166 0
0.4942530 -0.2409043 0.7644423 0
-0.0645620 -0.0871147 0.5666036 0
0.0915606 0.0296263 0.3678783 0
-0.4081257 -0.1369382 0.7791039 0
0.8974043 -0.7166358 1.4534494 0
0.5973541 -0.6872276 1.5567151 0
-2.0577209 -1.1941252 3.0595567 0
-0.0912073 0.0456125 0.4431289 0
0.0990799 0.0218273 0.4788484 0
0.3689449 -0.1715774 0.6819237 0
-0.1187713 0.0402858 0.4563690 0
0.0548940 0.0854482 0.4189609 0
-1.2377546 -1.1657715 2.9836326 0
-0.0699677 -0.2091674 0.7045479 0
-0.1574910 -0.2717852 0.7854272 0
0.1771240 0.0277886 0.4299425 0
0.0641735 -0.0321557 0.5164275 0
-0.0431895 -0.0974384 0.5902441 0
-0.1175180 -0.1136882 0.6035462 0
-0.1031380 -0.3067788 0.8645719 0
-0.0350708 -0.3570912 0.8508174 0
0.1817595 -0.3440543 0.8735027 0
0.3160093 -0.2770653 0.8282570 0
-0.1183696 0.0401724 0.4549929 0
0.0191872 -0.1967532 0.7053289 0
-0.4798358 -0.0563124 0.6368051 0
-0.0526028 -0.0778001 0.5597376 0
-0.1079031 -0.1291671 0.6231564 0
0.2482296 -0.2122905 0.7339367 0
-0.2191054 -0.0844400 0.5608696 0
-0.2649116 -0.0545359 0.4914441 0
0.0864978 0.0042996 0.3466783 0
-1.5901529 1.4834200 4.1895876 0
0.0089715 -0.0651817 0.5535989 0
0.0978164 0.0213185 0.4753425 0
-0.0656392 -0.1755990 0.6442505 0
0.1556430 -0.1026772 0.5741659 0
-0.0324981 -0.1168474 0.6032408 0
0.2515447 -0.2140572 0.7461075 0
-0.5299889 -0.3327993 1.1125371 0
0.2585613 -0.4151354 1.1713827 0
0.0252505 -0.0962905 0.5972481 0
-0.0663124 -0.0871466 0.5662697 0
0.0634729 -0.3703817 0.8895150 0
0.4221335 -0.1773956 0.7063991 0
-0.1077982 0.0331608 0.4563980 0
-0.0955266 0.0468404 0.4458497 0
-0.0428205 -0.3613270 0.8920495 0
0.3939502 -0.1277578 0.6184669 0
-0.4980006 -0.2992384 1.0205128 0
0.2400813 0.1167435 0.3377712 0
-2.8119974 -1.8198670 2.9126992 0
0.9414945 -0.8140820 1.9089279 0
-1.6945472 -1.1402566 2.9064813 0
-0.4989820 -0.3095875 1.0277976 0
0.9281303 -0.7658654 1.5134430 0
0.0094632 -0.0813465 0.5616125 0
-0.0626445 -0.3060282 0.8632033 0
0.1241267 -1.1788169 2.2615376 0
-2.4683468 -1.6258533 3.2937579 0
-0.1074807 -0.3143482 0.8327607 0
-0.0295576 -0.1200484 0.5971757 0
-3.1859782 -1.3264345 3.4717345 0
0.1522265 -0.2958774 1.6468312 0
-1.1263936 -0.8190348 2.4507663 0
-0.9742780 -0.9551586 2.6519299 0
-0.2186539 -0.0839801 0.5590155 0
-0.0888868 0.0389041 0.4571835 0
0.3149843 -0.2393781 0.7543131 0
-0.7813277 -1.2937158 2.8650517 0
-0.1043323 -0.6227822 1.3106332 0
-1.8347425 -1.0303054 2.8787360 0
-1.3410338 -1.3283123 2.8583152 0
0.0169907 -0.0917824 0.5760884 0
-0.0945371 -0.0079138 1.0944077 0
-0.0614212 -0.1983527 0.6824372 0
2.4501774 -4.9858198 8.9176121 0
0.0120962 0.0249756 0.4315123 0
-0.5375091 -0.8876470 1.8337334 0
0.0597958 0.0813539 0.4166640 0
0.2619404 -0.3193262 0.8480856 0
-0.1838236 -0.0795747 0.5883290 0
-0.0877682 0.0394045 0.4507394 0
0.4241425 -0.6674778 1.5276847 0
-0.1832618 -0.0782917 0.5893469 0
-0.2446669 -0.6860548 1.4420661 0
-0.5033598 -0.3083926 1.0296128 0
0.2659042 -0.2837439 0.8079140 0
-1.1636364 -1.4223412 2.5085142 0
0.0095853 -0.0803147 0.5627984 0
0.1071040 -0.1677660 0.6528482 0
-0.1622924 -0.1412170 0.6190898 0
-1.5431604 -1.5591522 2.8143547 0
-0.1806635 -0.1125667 0.5918748 0
-2.6118701 -1.4644171 3.4757113 0
-0.1261452 0.0026942 0.4608499 0
-0.0125990 -0.2803831 0.7797652 0
-0.1222132 -0.3832377 0.8839294 0
-0.4477009 -0.0648348 0.5656397 0
-0.5353314 0.0842316 0.4928628 0
-0.4310251 -0.1005543 0.6867480 0
-1.2467427 -0.9089171 2.7157331 0
1.0252464 -0.6530850 1.6891146 0
0.2293995 -0.1421503 0.5779207 0
0.0535228 -0.1432349 0.6385745 0
0.0452664 -0.0162890 0.4772120 0
-0.0907640 -0.1848091 0.7271718 0
-0.0227341 0.0746457 0.4247702 0
0.2358532 0.0416654 0.4527996 0
0.1095516 0.0054664 0.5145415 0
0.4796433 -0.1172664 0.6165869 0
0.2174329 -0.2291767 0.7378702 0
-1.3596392 -1.5013976 3.0838461 0
-0.1226716 -0.1067836 0.5811177 0
-0.2223431 -0.6127699 1.3079512 0
0.0813000 0.1128555 0.3360991 0
-0.0582807 -0.2005857 0.7008063 0
-1.8942767 -1.0813843 3.0203433 0
-1.9413099 -1.3195742 2.6511295 0
-2.5233724 -1.3649526 3.3149359 0
-2.8777981 -1.3476765 3.5693192 0
0.0870300 -0.3078341 0.8405026 0
0.5359268 -0.2829405 0.8310108 0
0.1252956 0.0191149 0.4769118 0
0.0440969 -0.1294741 0.6118307 0
-0.1264933 -0.1052305 0.6022115 0
0.6050988 -0.2361223 0.7558422 0
-0.1006804 -0.3055724 0.8545315 0
-1.7369581 -1.5946101 3.1625583 0
0.1061484 0.0064805 0.5043381 0
0.9845653 -0.7957701 1.5713292 0
0.1406129 -0.3234061 0.8683146 0
-0.5810981 -0.6205629 1.8135581 0
0.3005641 0.1277547 0.3429196 0
-0.0536672 -0.1007927 0.5970039 0
0.3488999 -0.0051168 0.5855756 0
-0.0395464 -0.2987584 0.8564993 0
-0.0415100 -0.0296549 0.5349593 0
-0.0594800 -0.2476311 0.7791251 0
0.1286327 0.0202630 0.4886704 0
-0.1796988 -0.1676322 0.6498492 0
0.0881365 0.0988432 0.3903664 0
0.0410962 -0.1260900 0.6173592 0
0.4002468 0.0016133 0.4708071 0
-0.1278236 -0.0816863 0.5594999 0
-0.0624886 -0.2387184 0.7472351 0
0.0956508 -0.1787132 0.6551955 0
-2.1984408 -1.5487964 3.1149375 0
0.4191637 -0.0529427 0.5265067 0
-0.0968587 0.0470972 0.4461214 0
-0.2856954 -0.0340190 0.4667231 0
-0.1570095 -0.0329721 0.4873911 0
-0.0215730 -0.2861077 0.8174340 0
-0.3001548 -0.2149923 0.8378589 0
-0.0807565 -0.3631810 0.9103033 0
0.0137183 0.1025347 0.3377648 0
0.8581093 -0.7345139 1.7108399 0
-2.5591326 -1.4934260 3.4363074 0
0.3300189 -0.0362197 0.5134640 0
0.2366463 0.0461974 0.4615793 0
0.2985390 0.1314043 0.3380517 0
-0.1235995 -0.3803713 0.9304041 0
-0.0890886 -0.5131122 1.1948689 0
-0.4115917 -0.2330533 1.0306343 0
-0.0122588 -0.3803304 0.9090558 0
-0.1403529 -0.1949543 0.7019055 0
-0.0439503 -0.3656078 0.8936288 0
-0.1189986 -0.1082564 0.5854088 0
0.2811734 -0.3430676 0.8774933 0
-1.9940784 -1.0813175 2.9214952 0
0.1888447 -0.3646242 0.9332164 0
-0.0171178 -0.1404337 0.6398336 0
0.1260908 -1.4756287 2.8505239 0
-0.0640647 -0.1731917 0.6335815 0
0.4768997 -0.1372588 0.6362205 0
-0.1067556 -0.0584429 0.5292315 0
-0.0330295 -0.1153156 0.6042343 0
0.0646567 -0.0335353 0.5104934 0
0.0495337 0.0863938 0.3976358 0
0.2009567 -0.0347606 0.5065955 0
0.1702655 -0.2819313 0.8023201 0
0.3425381 -0.2596213 0.7852567 0
-0.0295702 -0.2909399 0.8363233 0
0.2490254 -0.1807933 0.7234203 0
0.3131776 -0.0482411 0.5115350 0
0.1185608 0.1315820 0.5109860 0
1.0112989 -0.6423438 1.6705377 0
0.4887212 -0.1162033 0.5948979 0
0.1720632 -0.2843464 0.8141472 0
0.1800372 0.0269443 0.4328475 0
-0.6762134 -0.3519970 1.1816927 0
0.4325998 -0.2618532 0.7997328 0
0.1722655 -0.3253617 0.8448738 0
-0.0199729 -0.3329460 0.8863500 0
0.0651024 -0.3663823 0.8919034 0
-0.2874917 -0.6816929 1.3163371 0
0.1101822 -0.1233058 0.5814818 0
-0.0870696 -0.1403482 0.5965202 0
0.1783606 -0.3119935 0.8238266 0
0.3025834 -0.2435081 0.7701464 0
-0.3551514 -0.1072335 0.6947345 0
-0.0257081 -0.2548103 1.2944767 0
0.0286540 0.0958094 0.3778713 0
0.0490067 0.0676568 0.4426564 0
0.2921104 -0.2076215 0.7492949 0
0.0135190 0.1159851 0.3284098 0
-0.0983559 0.0499522 0.4636997 0
0.2294097 -0.0270329 0.4838933 0
-0.0550391 -0.1011065 0.5898107 0
0.0609864 0.0242837 0.4409514 0
0.2660146 -0.0403499 0.5150543 0
-0.1738931 -0.2627077 0.7856905 0
-0.2194208 -0.0844103 0.5571644 0
-0.4201266 -0.2343104 0.9366615 0
0.0867632 -0.0369260 0.5099253 0
-0.4471124 -0.2665954 1.0195223 0
0.0350452 -0.1191050 0.6058530 0
-0.2739498 -0.0552036 0.5256528 0
-1.2506028 -1.0677937 2.9277554 0
-0.6947721 -0.2461963 0.6588660 0
-0.2300854 -0.0815967 0.5656693 0
0.0915009 0.1004148 0.3978358 0
0.3553091 -0.3002166 0.8272921 0
-0.0628532 -0.0423745 0.5481938 0
0.2497204 0.0523659 0.4280608 0
0.1073104 -0.1054048 0.6063287 0
-0.0567973 -0.0755788 0.5456929 0
-0.1903710 -0.0775099 0.5919757 0
0.1154928 -0.0691647 0.5572613 0
-3.5345426 -2.1054316 4.2574601 0
-0.1196522 -0.0006783 0.4673807 0
0.2481797 -0.0951884 0.7431085 0
-3.1267862 -1.5894188 3.5283632 0
-1.2220364 -0.9171528 2.3058217 0
0.0969939 -0.3643637 0.8858435 0
0.0537654 -0.3667676 0.9077501 0
0.4240349 -0.0015173 0.4635846 0
-0.0508291 -0.0799843 0.5507284 0
0.3377599 0.0836322 0.3736506 0
0.1716519 -0.3242957 0.8447505 0
-1.4205993 -1.3730775 2.7410636 0
-0.0769430 0.0435524 0.4044749 0
-1.1940752 -1.4544227 2.5453987 0
0.1177117 -0.7765542 1.6456674 0
0.4029956 -0.6495400 1.4785403 0
0.0809634 -0.2587067 0.7936511 0
-0.1079868 0.0321531 0.4656400 0
0.4408801 -0.1796394 0.6879302 0
0.5818887 -0.2314739 0.7543087 0
-0.0550989 -0.1009083 0.5966122 0
0.2995142 -0.1710994 0.8733398 0
-1.7252300 -1.1963921 3.0964813 0
0.1161658 -0.0702944 0.5566354 0
0.4654745 -0.1151740 0.5986282 0
-0.0466564 -0.0829198 0.5395200 0
-0.1142431 0.1039877 0.3389347 0
-0.2746525 -0.0896791 0.5619190 0
0.1710992 -0.0207835 0.5124252 0
-0.1198538 -0.1152136 0.5968360 0
-0.4193063 -0.2532952 0.9645630 0
0.0111731 -0.0882255 0.5968305 0
0.1968815 -0.0234406 0.5379828 0
0.1984410 -0.0444386 0.5231705 0
0.3618135 -0.0951642 0.5711899 0
0.1699745 -0.2019730 0.7374053 0
0.2655269 -0.2840579 0.8136606 0
0.4589318 -0.1230798 0.6268486 0
-0.1867735 -0.0795081 0.5766797 0
0.2800310 -0.3721196 1.0212010 0
0.1224232 0.0399326 0.3952180 0
0.1573200 -0.1302941 0.6168789 0
0.2967533 -0.1172140 0.8917319 0
-0.1010567 -0.1301691 0.5968122 0
0.4053988 -0.1476203 0.6432472 0
0.1371920 -0.1209238 0.6088411 0
0.0987208 0.0059269 0.4698655 0
0.0510108 0.0867317 0.3937525 0
0.0766522 -0.1749584 0.6858910 0
-1.3187032 -1.1349224 2.8499660 0
0.0044926 0.0330801 0.4453827 0
0.0283175 0.0909326 0.3551650 0
0.5019670 -0.1879892 0.6990674 0
0.0654799 -0.1383015 0.6173071 0
0.1879783 0.1288045 0.3713557 0
-0.5338690 -0.2190198 0.7541266 0
0.3697055 -0.0116300 0.6225623 0
0.2017643 -0.1654204 0.6708489 0
0.1841640 -0.3454775 0.8793991 0
-0.1302946 -0.0789451 0.5628858 0
0.1132762 -0.2705368 0.8674557 0
-0.1445578 -0.1653173 0.6772579 0
-0.1619339 -0.1413997 0.6175484 0
0.1246781 -0.8004876 1.7015669 0
0.1876338 -0.7436842 1.6050828 0
-0.5048429 -0.1573441 0.7710854 0
0.4316431 -0.0750405 0.5530794 0
-0.2232483 -0.1628002 0.7066667 0
0.3034188 -0.2951128 0.8238616 0
-0.1405084 -0.0730888 0.5521763 0
-0.4693185 -0.7751032 1.6670651 0
0.2125493 0.1296049 0.3643660 0
0.1339382 -0.0605701 0.5538504 0
0.0173630 -0.3984556 0.9444488 0
-1.4676808 -1.4752061 2.8039849 0
0.3627518 -0.3080332 0.8570512 0
0.2908184 -0.2064037 0.7427612 0
0.4766119 -0.1598251 0.6615015 0
0.0392521 -0.0109177 0.4743320 0
0.1895390 0.1302773 0.3748179 0
-0.2286011 -0.0171887 0.5200823 0
-0.1924480 0.1167143 0.3406951 0
0.4966229 -0.2729246 0.8115478 0
0.5715443 -0.1897760 0.7206348 0
-0.5066626 -0.1127298 0.6118534 0
0.0406792 -0.2208510 0.7334585 0
-0.2497043 -0.1247308 0.6091675 0
0.0116736 -0.0890059 0.5921178 0
-0.4740978 -0.1523454 0.7089813 0
-0.0906101 -0.2391557 0.7776101 0
-0.0448279 -0.3486592 0.8645915 0
-0.1129282 -0.0559102 0.5308781 0
-1.1958026 -1.3981419 3.4075708 0
-0.2582415 -0.0941020 0.5568185 0
0.1846665 0.0312258 0.4551272 0
0.0479853 -0.1155874 0.5880445 0
0.5055942 -0.2671613 0.7790058 0
-0.0527077 -0.1050405 0.5863936 0
0.1692110 -0.4050873 1.1040635 0
0.2395143 0.0448786 0.4637192 0
0.1978346 0.0349793 0.4934041 0
0.4049713 -0.1492129 0.6444665 0
-0.0085793 -0.2592488 1.3346392 0
0.4027128 -0.0104533 0.4950069 0
-1.6581634 -1.1145109 2.8748567 0
-0.0029999 -0.0501282 0.5437293 0
-0.1886422 -0.0791844 0.5673349 0
-0.3109781 -0.0843564 0.5590891 0
-0.2342432 -0.1588294 0.6558839 0
0.3822877 -0.1789837 0.7105343 0
0.3354249 -0.2874559 0.8245476 0
-0.0427732 -0.2915226 0.8297967 0
0.1366078 -0.3522055 0.8667995 0
0.3458940 0.0854602 0.3834781 0
-1.3431063 -1.0716603 2.9314523 0
0.3076074 0.0959899 0.3517706 0
0.3076078 -0.1645668 0.6888086 0
0.2880749 -0.0411877 0.5673080 0
0.0874537 -0.2674044 0.8272020 0
-0.1263472 0.0047441 0.4648553 0
0.4758563 -0.1381070 0.6344917 0
-0.0375719 -0.0376369 0.5368652 0
-0.0329083 -0.3357184 0.8599207 0
-1.5029635 -1.4506396 2.9584303 0
0.4135287 -0.2930556 0.8610088 0
-0.1930941 -0.1196618 0.5918575 0
-0.2710869 -0.0909308 0.5628315 0
0.1851432 0.1271881 0.3645801 0
-2.9357498 -1.8045608 2.9537659 0
-0.4592724 -0.1380026 0.7555879 0
0.0881158 -0.2506903 0.7530814 0
0.0180759 -1.0871247 2.0730591 0
-0.1595820 -0.0719031 0.5519689 0
2.0164387 -4.2349086 8.7444429 0
0.3118384 -0.1997030 0.8677244 0
0.3729242 -0.2219377 0.7343860 0
-0.8286861 -0.6217678 1.8672457 0
-0.1506474 -0.0340335 0.4975784 0
0.0942688 0.2706891 1.5259147 0
-0.3201595 1.9470754 11.1066380 0
-1.6130853 -1.1305828 2.9090261 0
-0.3988425 -0.2253816 0.9854804 0
0.4484488 -0.7084623 1.7738619 0
-2.9892967 -1.3173003 3.3283002 0
0.1824604 -0.0434427 0.5219297 0
-0.5292040 -0.1422822 0.6107316 0
0.0798972 -0.2564343 0.7817693 0
-0.7613125 -1.2895390 2.7040782 0
0.1260702 -0.3594390 0.8906768 0
0.2404280 -0.3083209 0.8064855 0
-0.2524616 -0.5139063 1.3010237 0
-0.2122203 -0.6180058 1.3073040 0
-0.4592269 0.0510015 0.4626862 0
-0.0087645 -0.0278234 0.5004489 0
2.4663951 -5.0186563 8.9839048 0
-1.2523220 -0.6010312 2.1229017 0
0.0587164 -0.3507996 0.8401593 0
-2.6220505 -1.5071608 3.4735751 0
-0.0768364 -0.0394974 0.7061718 0
-0.1197344 -0.2580819 0.8358423 0
0.8565328 -1.7115793 2.7933242 0
0.2705563 -0.2162124 0.7297780 0
-1.2082148 -1.2736590 2.7493498 0
0.1816351 -0.0036270 0.5287507 0
0.0616181 0.0251808 0.4463547 0
-0.2339269 -0.1578661 0.6517307 0
0.4296593 -0.0632345 0.5424960 0
4.7267275 -4.8561988 9.7804270 0
-0.6827471 -1.1380867 2.3523548 0
0.4050404 -0.0977051 0.4979672 0
-0.0888238 -0.2458283 0.7578580 0
1.1731198 -0.9318261 1.9381201 0
-2.8213227 -1.7686121 3.1007261 0
0.2949057 -0.3098397 0.8192354 0
1.7859008 -3.8991320 8.0251598 0
-0.0584011 -0.0752225 0.5487126 0
-2.7677181 -1.6348579 3.3674498 0
0.0683836 -0.3416503 0.8868251 0
-1.4020621 -1.4248232 2.7012746 0
-1.8361946 -1.5985651 3.0223196 0
-0.2432033 -1.8900222 3.3802283 0
0.4885682 -0.0992712 0.5822441 0
0.3962058 -0.0671681 0.6645364 0
0.1786151 -0.2817530 0.8012043 0
-0.5311194 -0.0781247 0.5897918 0
0.1426021 -0.3413630 0.8916951 0
-1.3991128 -1.3540748 2.7241945 0
-2.9414406 -1.8491228 3.2423356 0
0.3983114 -0.1428553 0.6321898 0
-0.1893502 -0.2449072 0.7939850 0
-0.1612301 -0.2856998 0.7926147 0
0.0561591 -0.3409772 0.8173063 0
-0.4763283 -0.0498902 0.6064192 0
0.4383734 -0.1206647 0.5713333 0
-0.0096124 -0.0274587 0.5021948 0
0.0726976 -0.2029202 0.7147022 0
0.0053484 -0.2121694 1.2174859 0
-0.0310477 0.0228679 0.4303997 0
-0.1261124 -0.6110936 1.5138323 0
0.6296779 -0.8476933 1.6457365 0
-0.1475675 -0.0306064 0.4900107 0
0.5407594 -0.1845615 0.6826866 0
0.3976968 0.0017671 0.4673401 0
0.0855342 -0.1023798 0.6134829 0
0.2034202 -0.1688407 0.6748545 0
-0.1011641 0.0029196 0.5235879 0
-0.0198257 -0.2810847 0.7989165 0
-1.6054395 -0.9318057 2.5716641 0
0.0717810 -0.3418315 0.8765517 0
0.0506558 0.0868929 0.3943918 0
-0.0593075 -0.1533099 0.6246691 0
-1.1055187 -1.3915725 3.1181955 0
0.1130397 0.0063145 0.4851331 0
-0.1207410 -0.0879102 0.5614759 0
0.0749879 -0.1794979 0.6761795 0
0.0520517 -0.1164381 0.5904114 0
-0.1850973 -0.0843765 0.5360624 0
-0.5534520 -0.1924850 0.8665164 0
-0.5602412 -0.5947302 1.6830661 0
0.4137002 -0.1460129 0.6578091 0
-0.6724578 -0.3554086 1.2014679 0
-1.6836213 -1.1716602 3.0286078 0
0.1289151 0.0214086 0.4866899 0
0.9371747 -0.7984873 1.8754032 0
-0.2008494 -0.1680187 0.6809341 0
-0.6688426 -0.3502544 1.1575037 0
0.4918749 -0.2630903 0.8633890 0
0.0673220 -0.1083334 0.5770839 0
0.5382283 -0.3098441 0.8250467 0
-0.0666267 -0.1102625 0.5916567 0
-0.0364906 -0.0375626 0.5316996 0
-0.2183110 0.0035809 0.4749528 0
0.3322804 0.0225320 0.4507740 0
0.4345970 -0.2818323 0.8139853 0
-1.5337903 -1.1922277 3.1485240 0
1.0117942 -0.9467419 1.8693941 0
0.1254107 0.0194031 0.4754577 0
0.9889148 -0.8107563 1.6005328 0
0.0887000 0.0935983 0.3793676 0
-0.1467639 -0.2609155 0.9734669 0
-0.1849208 -0.0781609 0.5853001 0
-0.4468199 -0.4863711 1.3454641 0
0.2091812 0.1268506 0.3598363 0
0.1681807 -0.1132171 0.6055441 0
0.0930907 -0.1435266 0.6372176 0
0.0063814 0.0283332 0.4322090 0
-0.0971177 -0.3620181 0.9115348 0
-0.0115600 -0.2854468 0.8222080 0
-1.4127334 -1.7660515 3.4278860 0
0.0852031 -0.2392070 0.7273673 0
-0.1182734 -0.1137565 0.6027424 0
-3.2905569 -1.6348135 3.3867505 0
0.3136141 -0.2178968 0.7595934 0
-0.1050784 -0.3644001 0.8798925 0
-0.3191317 -0.0643796 0.5419749 0
0.4277449 -0.1818839 0.7241521 0
0.0663726 -0.1090098 0.5878240 0
0.2159181 -0.1789120 0.7202359 0
-0.3106351 -0.0638613 0.5258484 0
-0.0272403 -0.1157529 0.6015889 0
-0.1867359 0.1647990 1.0737869 0
0.2793516 0.0746254 0.3913485 0
-1.2584062 -1.3963536 2.8307538 0
-0.2288121 -0.1289182 0.6094875 0
-1.8153809 -1.5077105 2.8582160 0
0.0649702 -0.1474973 0.6340605 0
0.1523172 -0.1781137 0.7032321 0
-0.4778375 -0.2095501 0.6224654 0
-0.5787306 -0.0664542 0.5779537 0
0.1639680 -0.3420484 0.8985983 0
-2.7732592 -1.3795971 3.7355649 0
-0.7781510 -0.6851703 2.0406404 0
0.4988845 -0.1352320 0.6261905 0
-0.1683626 -0.5012489 1.2160010 0
-0.1096072 -0.0582397 0.5227795 0
0.0512694 0.0902980 0.4089912 0
-0.1600091 -0.0520193 0.5287453 0
1.0684193 -1.9204214 3.0976779 0
-0.3187732 -2.5737042 4.4545159 0
-0.1146917 -0.0518324 0.5332794 0
-0.1379405 0.0742368 0.2942756 0
0.4272137 -0.0458674 0.5204763 0
-1.0325537 -1.3091655 2.9031091 0
0.3821368 -0.2249396 0.7562087 0
0.2953883 -0.2038944 0.6987546 0
-1.2980733 -1.1211168 2.8197675 0
-0.4689298 -0.0514499 0.5998871 0
-1.0634816 -1.6365178 2.7409546 0
0.2733691 -0.3410686 0.9103336 0
0.4383211 -0.2893148 0.8272546 0
-0.0854148 -0.3540535 0.8851358 0
0.0577726 -0.3858841 0.9343764 0
-0.5028323 -0.0508500 0.5415203 0
-0.4653792 -0.1658163 0.7109262 0
-0.4224632 -0.0318003 0.6160080 0
-0.4930952 -0.1239767 0.6335837 0
-0.3838970 -0.2106944 0.9034448 0
-1.9333732 -1.1352862 2.8652706 0
0.2510819 -0.2148922 0.7470461 0
-0.2731172 -0.0905719 0.5644301 0
-0.5021108 -0.3105910 1.0306177 0
0.2698874 0.0605713 0.4669039 0
-0.0829614 -0.2960427 0.8131874 0
0.1851146 -0.0153041 0.4952296 0
-2.7959118 -1.2628380 3.1959653 0
0.2778966 0.0302241 0.3862714 0
0.3152098 -0.3076321 0.8682999 0
-0.0586464 -0.0769702 0.5304634 0
-0.4874636 -0.0427689 0.5735320 0
0.1157155 -0.0700250 0.5561497 0
-0.0859204 -0.4129257 0.9637884 0
-0.1662240 -0.2163565 0.7189216 0
-0.2704023 -0.0567169 0.5104279 0
0.2757018 -0.0977023 0.5745377 0
0.3563674 0.0448819 0.4470877 0
-0.5234142 -0.2868846 1.1102282 0
0.4939260 -0.1008427 0.5915268 0
0.0951287 -0.2446587 0.7692763 0
0.0406501 -0.1274158 0.6102195 0
-2.1767464 -1.5369309 3.0693188 0
-0.0364119 -0.0360103 0.5372744 0
0.0608496 0.0247860 0.4363291 0
-0.1821944 -0.0451106 0.5309961 0
0.2525220 -0.2545402 0.7704179 0
0.3512280 -0.2952716 0.8191717 0
0.0751824 -0.3133074 0.8786673 0
-0.0958010 -0.1471007 0.6420090 0
0.3241689 -0.1756236 0.4892175 0
0.7105005 -0.3953349 1.1030278 0
-0.5467803 -0.8770621 1.8965791 0
0.1169985 0.0083457 0.4997588 0
-0.5164452 -0.0783958 0.6105562 0
-1.1335977 -1.4217852 3.1694527 0
-0.3276815 -0.2019922 0.7685436 0
0.2412464 -0.0169925 0.4873732 0
-0.5377004 -0.0784937 0.5985922 0
0.2519985 0.0542363 0.4333370 0
-0.0109246 -0.3773665 0.9015776 0
-0.1302222 -0.0794735 0.5617802 0
0.1299848 0.0219079 0.4890094 0
-0.0243458 -0.3219056 0.8727871 0
-0.0024649 -0.0513099 0.5241290 0
0.0718441 -0.1548360 0.5633133 0
0.2191613 -0.0647926 0.5329601 0
0.1400093 0.0152368 0.4729013 0
-0.1726306 -0.1253251 0.5991212 0
-0.2105870 -0.1891279 0.6843998 0
-0.2748668 -0.0890220 0.5613830 0
0.4345357 0.0011412 0.4690409 0
0.4083672 -0.1618694 0.6525555 0
2.7628996 -5.0544486 8.3566980 0
-0.0492791 -0.3371973 0.8768271 0
-0.0082539 -0.1551663 0.6431310 0
0.0328626 0.0168833 0.4283723 0
-0.1236111 0.0001761 0.4653122 0
-0.0518005 -0.0763311 0.5657874 0
-0.5170192 -0.0644941 0.5977716 0
-0.0106469 -0.2459992 1.3560094 0
-0.1035762 0.0925692 0.3597668 0
-0.0496543 -0.0271965 0.5691174 0
0.0598615 -0.3817529 0.9194016 0
0.3318680 -0.2716533 0.8247597 0
0.1135453 -0.1925567 0.6745160 0
0.0969160 -0.0707357 0.5392649 0
-0.1341204 -1.3108743 2.4767559 0
-0.0961401 -0.1468360 0.6423047 0
0.1425500 0.0545319 0.4352103 0
-0.0615038 0.0205719 0.4384745 0
0.3817617 0.0919132 0.3968731 0
-0.1869633 -0.1966938 0.7083445 0
0.4370819 -0.0783923 0.5555881 0
0.2001764 -0.0762236 0.5934810 0
-0.1878535 -0.2525814 0.7664433 0
-3.0367849 -1.9032661 3.3498924 0
-0.1827834 -0.1962001 0.6983254 0
-0.0094077 -0.3324302 0.8604789 0
0.0960610 -0.0704753 0.5402130 0
-0.0542785 -0.2809620 0.8457803 0
-0.0743366 -0.1062981 0.5931408 0
-0.0886028 0.0448645 0.4399551 0
0.3015111 -0.2094414 0.7244825 0
0.2875434 -0.2056918 0.7383347 0
-0.0650339 -0.3982010 0.9431253 0
-0.3411367 -0.0752320 0.5651032 0
-0.0547837 -0.0823216 0.5778217 0
0.2698108 -0.1055285 0.5973974 0
-0.1212089 -0.0869441 0.5566525 0
-0.3011173 -0.0230706 0.4912724 0
-0.0185852 -0.3227697 0.8546942 0
-0.7009072 -0.3602476 1.2229557 0
-3.0820553 -1.7926307 3.7368379 0
-0.6162053 -0.2715028 0.9634935 0
0.0698495 -0.0363910 0.4541968 0
-0.4046957 -0.0763715 0.5765412 0
-0.1966383 -0.1939242 0.6891617 0
0.1623323 -0.3291473 0.8673569 0
-0.1655537 0.0830178 0.3692974 0
2.3245106 -4.4397812 8.5539818 0
-0.0235266 -0.2000508 1.5184069 0
3.5070820 -6.3759389 10.5729742 0
0.1526322 -0.2927595 1.5648407 0
-0.2386408 0.1843811 1.1399982 0
-0.2415180 0.1890551 1.1479169 0
-0.3344610 -0.1200422 0.6606790 0
-0.0234828 -0.1615585 0.6480200 0
-0.1718582 -0.0736132 0.5823956 0
0.4160157 -0.1864426 0.7223591 0
0.9215831 -0.7939984 1.8579240 0
5.0835009 -5.2530103 10.5892696 0
0.0439323 -0.0146968 0.4846664 0
0.2527390 -0.1287199 0.6036902 0
0.9067486 -0.7800651 1.8244088 0
0.7330775 -0.9882508 1.9365749 0
0.1070736 -0.1045344 0.6005632 0
0.4834950 -0.2372486 0.7462978 0
0.2666854 -0.2838648 0.8067948 0
-1.2106818 -1.4331659 2.6111314 0
0.0056404 0.0288667 0.4394531 0
-0.0560617 -0.0761978 0.5527315 0
-0.2741674 -0.2292578 0.7730706 0
0.4071750 -0.1237784 0.6336907 0
0.4459655 -0.2687025 0.8213372 0
3.7729254 -4.5149741 8.5746574 0
-0.1465603 -0.0335801 0.5078851 0
1.0516648 -0.6504931 1.7363987 0
-1.7303486 -1.4931586 3.1975501 0
0.2311098 -0.1105664 0.6467344 0
-0.2416923 0.1879613 1.1492244 0
-2.5705316 -1.6779436 3.4206166 0
-0.1995872 -0.0183394 0.3975587 0
-0.1993783 -0.0187550 0.3974515 0
-1.2076856 -0.8769556 2.6639414 0
0.0416092 -0.0132608 0.4821978 0
-0.1629932 0.0821981 0.3658246 0
0.0863404 0.0756997 0.3304252 0
-0.6749377 -0.3529553 1.2058641 0
0.0151531 -0.3998525 0.9495211 0
0.2630423 -0.2041758 0.6917676 0
-0.1014641 -0.1464376 0.6570178 0
0.1490583 -0.1737980 0.6458983 0
0.3648560 0.0498324 0.4136922 0
-1.7067277 -1.9460782 3.7438612 0
-0.5260733 -0.1528190 0.6519348 0
-0.7171678 -0.3765010 1.2761371 0
-0.0037011 -0.0612099 0.5371897 0
0.1523840 -0.1768680 0.6877487 0
-0.1995628 -0.7572424 1.3866597 0
-1.0234867 -1.0037774 2.8023508 0
-2.4235182 -1.6010379 3.2442713 0
-0.0798725 -0.3452788 0.8555397 0
-2.0814636 -1.2262648 3.1033182 0
-0.0112532 -0.1420788 0.6097155 0
0.4166402 -0.1678936 0.6927943 0
0.5902612 -0.2316010 0.7634308 0
-1.9823906 -1.0237284 2.7230420 0
-0.3067192 -0.0226287 0.4910671 0
0.4287957 -0.6438803 1.4637711 0
-1.1933604 -1.2333957 2.9742994 0
-1.2662195 -1.2616225 3.0090511 0
0.5218555 -0.2502256 0.7656028 0
0.2318581 -0.3095436 0.8366272 0
0.3677067 -0.0528593 0.5562107 0
-1.4059334 -1.1683079 2.8251791 0
-0.0562454 0.0830097 0.3592032 0
-0.2190925 -0.0847225 0.5614903 0
-0.0105191 -0.2655689 0.7119250 0
-0.6817542 -0.3546946 1.1733229 0
-0.6597180 -0.3030705 1.0900202 0
-0.5309178 -0.0093377 0.5129823 0
-0.0388301 -0.3286017 0.8441722 0
0.4183600 -0.1690751 0.6450455 0
-0.4308794 -0.1479498 0.6737931 0
-0.0631844 0.0874572 0.3597609 0
-0.1332662 -0.1538912 0.4465780 0
-0.1054855 -0.0583492 0.5314650 0
1.9623976 -3.2540195 5.3059821 0
-0.1185207 -0.0009043 0.4608355 0
0.0286269 -0.2591490 1.4198459 0
-1.2246319 -1.6569005 3.4576962 0
0.4664279 -0.6799567 1.5459300 0
-0.2960088 -0.0796191 0.5575848 0
-0.1675420 -0.4156173 1.0026990 0
-0.0207940 -0.3947542 0.9535214 0
0.2488096 0.0546542 0.4275540 0
-1.2840270 -1.2798817 3.0559475 0
0.1626396 -0.9193115 1.7492039 0
0.4203805 -0.5718499 1.4605086 0
0.2389911 -0.0275942 0.4840375 0
-1.2877879 -1.0332849 2.7354946 0
0.6205793 -0.6845304 1.5530558 0
0.2491481 -0.1223365 0.6109990 0
-0.2517375 -0.1275272 0.6216129 0
-0.0536766 -0.2866787 0.7786340 0
0.0750935 -0.1393635 0.6423638 0
-0.3992885 -2.4230621 4.1324997 0
-1.5770633 -1.8009965 3.4624643 0
0.1082848 -0.2884040 0.8720487 0
0.2309283 -0.0788952 0.5601340 0
-1.1051614 -0.9118006 2.8017867 0
0.3497177 -0.2980312 0.8170015 0
-0.1759519 -0.2150847 0.7422699 0
-1.1434326 -2.0849750 3.4350989 0
-1.1259159 -1.8197732 3.6951025 0
0.2279996 0.1348829 1.3192455 0
-1.7523578 -1.5280062 2.8752840 0
-0.5358751 -0.2292612 0.6706140 0
-0.6646364 -0.1307815 0.5568576 0
-0.0187674 -0.2842853 0.8109920 0
0.0789325 -0.2568393 0.7827173 0
0.0993952 -0.0896857 0.5792578 0
-0.0948443 -0.1290305 0.5830639 0
-1.1367536 -1.3189114 3.0751922 0
-0.3015780 -0.0442006 0.5121503 0
-0.0657432 -0.2132022 0.7094961 0
2.6621423 -5.0804448 9.7794895 0
0.0326570 -0.3643416 0.8904568 0
0.0826684 -0.2653790 0.8178853 0
-2.7896032 -1.4379495 2.9235620 0
-0.2499766 -0.1306122 0.6397161 0
-0.2506515 -0.1282640 0.6192014 0
0.1110045 -0.2987928 0.7857432 0
-0.1114479 -0.0570484 0.5297596 0
0.3974790 -0.2846537 0.8253059 0
-0.6384373 -2.4629645 4.3470912 0
-1.3347771 -1.3737239 2.8129947 0
0.0247041 -0.1036111 0.5908595 0
-0.0656627 -0.1105031 0.5914733 0
0.3344232 0.0267738 0.4528017 0
1.9832963 -5.3580236 10.5025568 0
-0.2973785 -2.2076769 3.9801912 0
-0.2731102 -0.0545475 0.5167161 0
-0.5072122 -0.2930357 1.0627675 0
-0.0591316 -0.0712674 0.5573258 0
-0.1844763 -0.0792676 0.5886733 0
0.4135075 -0.1696159 0.6860822 0
-0.0897282 -0.0870183 0.5445721 0
-0.1309192 -0.2458429 0.7485933 0
-0.0348166 0.0253490 0.4394652 0
-0.4995574 -0.3105258 1.0289122 0
0.0376208 -0.3647694 0.9059932 0
0.1760204 -0.7669504 1.6476979 0
-1.6494058 -1.4879171 2.9864552 0
-2.7706594 -1.5337504 3.1919410 0
0.0230847 -0.0528127 0.5294327 0
0.3031342 -0.2091472 0.7360618 0
-0.0376074 -0.4291512 0.9773439 0
0.0824408 -0.2478144 0.7788874 0
0.1694967 -0.2837120 0.8130470 0
-0.0280903 -0.1252411 0.6218572 0
-0.2214144 -0.0839872 0.5569267 0
0.1094454 -2.9039116 4.7471709 0
0.0967896 -0.1079650 0.5810443 0
0.0290495 -0.1002649 0.6042634 0
-0.1919790 -0.0764301 0.5799226 0
0.0073343 0.0270893 0.4281925 0
-1.2697287 -1.3956245 2.8642273 0
0.1621484 0.0270211 0.5026507 0
-0.2740003 -0.0590147 0.4988687 0
-0.0631354 -0.3029337 0.8304420 0
0.1023551 -0.3516411 0.8652303 0
-0.1567163 -0.2355480 0.7285009 0
-0.4248074 -0.2356832 1.0674665 0
-0.0761622 -0.0426869 0.6258865 0
0.3105123 -0.1321826 0.6329618 0
-2.1399121 -1.2426872 3.1716690 0
-0.1656569 -0.0745049 0.5736270 0
-0.0098661 -0.2806808 0.7793919 0
0.1995350 -0.0777672 0.5445585 0
0.0614065 -0.3955463 0.9599800 0
-0.3201217 -0.0669863 0.5382933 0
-0.2288023 -0.0808686 0.5565739 0
-0.1031807 -0.1433416 0.6860678 0
0.0743261 -0.1756766 0.6733146 0
-2.1219704 -1.4922713 2.9804335 0
0.9303657 -1.2090361 2.3804243 0
0.0170374 -0.1790258 0.6625974 0
-0.2248224 -0.0469389 0.5106596 0
-0.4324418 -0.5111132 1.3503945 0
0.2642972 -0.2337841 0.6955209 0
-0.1220271 -0.3079788 0.8337295 0
0.0323264 0.0077912 0.3929754 0
-2.9728312 -1.8645134 3.2879958 0
-0.0871713 -0.1455056 0.6042700 0
-0.5370973 -0.0076186 0.5176287 0
-0.1589074 -0.3008703 0.8480206 0
0.1288766 0.0496609 0.3977622 0
-1.3046787 -1.3077066 3.1124268 0
-0.0226079 -0.1972685 0.7236625 0
0.1334137 0.0499680 0.4025319 0
-0.0705647 -0.4028381 0.9301282 0
0.1102420 -0.2244609 0.7382287 0
0.2536108 -0.2185769 0.7592553 0
0.3922217 -0.1796326 0.7208857 0
0.0907315 0.0973631 0.3906249 0
-0.7057161 -0.3066358 1.1502310 0
-0.3361829 -0.2398268 0.8701108 0
-0.5112611 -0.3182769 1.0607851 0
-0.1416635 -0.0995136 0.3354543 0
-0.1386505 -0.2542983 0.9400958 0
-0.0073320 -0.1544659 0.6420695 0
0.0971318 -0.3645363 0.8891312 0
0.3429700 -0.7353380 1.6686686 0
-0.5187809 -0.1519719 0.7517697 0
-0.2283769 -0.0813798 0.5535505 0
0.0749796 -0.1389731 0.6353906 0
0.5564296 -0.1862144 0.6999000 0
-0.1173664 -0.1129600 0.6015354 0
0.4046939 -0.1792019 0.7007287 0
-0.0349028 -0.0972470 0.6158834 0
-1.3759714 -1.4275671 2.8415947 0
-1.0086931 -1.2711903 2.8673508 0
0.5317381 -0.2704163 0.7839758 0
0.3932620 -0.1253849 0.6153063 0
-0.1446204 -0.0353842 0.4916376 0
-0.4967064 -0.2395299 0.9301875 0
-0.2104176 -0.1897691 0.6882369 0
-0.0413277 -0.0292052 0.5350078 0
-1.2816826 -1.5471219 2.7099473 0
0.1392024 0.0137357 0.4798670 0
-0.5819435 -0.0928606 0.5362384 0
-0.3837119 -0.2109244 0.9021944 0
-1.2946936 -1.2857075 3.0756879 0
-0.1013192 -0.1370294 0.6299517 0
0.0737424 -0.1781685 0.6684575 0
-0.4715416 -0.0573018 0.6272711 0
0.0612901 -0.1849915 0.6945202 0
0.2847804 0.0744308 0.3993077 0
-0.5320504 -0.0393677 0.5455206 0
-0.3751435 -0.2054145 0.8528294 0
-1.0019817 -1.8411703 3.0404246 0
0.2962539 -0.1183099 0.5935514 0
-0.7496346 -0.4583549 1.7861791 0
-1.1477270 -0.9940174 2.6999564 0
-0.1258091 -0.1897144 0.6699956 0
-0.5886528 -0.2686652 0.9330044 0
-1.0248884 -0.7911473 2.4032269 0
0.0789610 -0.1803301 0.6693671 0
0.4213331 -0.4019016 1.3884425 0
-0.9307725 0.5503343 2.1299257 0
0.5251902 -3.1018429 4.6880069 0
-0.0670501 -0.0411674 0.5514538 0
-0.0813385 -0.1559712 0.6951036 0
-0.9467683 -0.8345121 2.4183333 0
-0.9686154 -0.9716036 2.6716948 0
-0.4858788 -0.0471751 0.6237469 0
-0.1209869 -0.0868529 0.5645717 0
-0.0616633 -0.1490667 0.6351013 0
-1.3123016 -1.1284599 2.8348908 0
-0.1794636 -0.1171030 0.6042989 0
-0.1980850 -0.1915909 0.6855467 0
-0.0673173 -0.2153729 0.7175801 0
-0.0349142 -0.0429742 0.6320676 0
-0.5511652 -0.5984159 1.6999990 0
-0.5627018 -0.0653296 0.5613450 0
1.0826797 -1.9433291 3.1372888 0
-0.3325933 -2.6538975 4.5959773 0
0.0086515 -0.3838801 0.9068511 0
-0.4808529 -0.0997360 0.6215875 0
0.4864987 -0.2671601 0.7926611 0
-0.0530055 -0.0782978 0.5587270 0
0.0664796 -0.1100969 0.5894935 0
-0.6438704 -0.1485986 0.5930727 0
-0.5245708 -0.0818400 0.5804362 0
-0.5237394 -0.1050324 0.5828026 0
-0.5140228 -0.1156207 0.5112715 0
-0.1376172 -0.5836342 1.1082751 0
-0.5758797 0.0882066 0.4759296 0
-0.0750865 -0.0808055 0.5094981 0
-0.2887046 -0.0578447 0.4947928 0
-0.0302010 -0.0389927 0.5257351 0
-0.8000242 -1.7701522 3.6177666 0
-1.8405217 -1.5182227 2.8066628 0
0.1389611 -0.1220563 0.6084454 0
-1.1494317 -1.7159940 2.9412246 0
-0.4921299 -0.0465023 0.6234480 0
-0.1993305 -0.1913915 0.6879401 0
-2.4884498 -1.2549093 3.4150968 0
0.1254134 -2.9240286 4.6750512 0
-0.0758050 -0.1492635 0.6463060 0
-0.1778102 -0.3065421 0.8347386 0
-3.0576258 -1.3184154 3.3871660 0
0.3023380 -0.3181171 0.8564414 0
0.5272041 -0.2150339 0.7214445 0
0.4966701 -0.2698003 0.8054217 0
-0.0578612 -0.0419527 0.5433934 0
-0.2395158 0.0009597 0.4816255 0
0.2223495 -0.0985015 0.5879621 0
-0.3500683 -0.1904995 0.7584946 0
-0.3710527 -0.2042723 0.8361877 0
-0.3255150 -0.0733033 0.5418320 0
0.9033331 0.0927921 2.1334510 0
-2.7762940 -1.2546792 3.1713922 0
-0.1995101 -0.2681021 0.7713199 0
-0.2897854 -0.0285231 0.4894378 0
-0.5644390 -0.2957396 1.0201447 0
-0.1591163 -0.1413825 0.6362525 0
-1.2239161 -1.1758114 2.9822764 0
-0.6119298 -0.2707316 0.9603223 0
-1.3914135 -1.0930259 2.8560750 0
0.0862596 0.0953796 0.3782247 0
-0.0878786 -0.4915145 1.1526952 0
0.1034769 -0.1188927 0.6201643 0
-2.0659854 -1.8054616 3.2795424 0
-0.1844685 -0.0791742 0.5811076 0
0.0086507 -0.1796625 0.7004689 0
-0.2774565 -0.0512846 0.5340180 0
-0.1609752 -0.2850757 0.7924125 0
-2.7189615 -1.3703017 3.1850586 0
-1.3386141 -1.0157717 2.5177400 0
-0.1385414 -0.0832433 0.5537714 0
0.1513880 -0.2925573 0.8011177 0
0.3974091 -0.1777548 0.6865387 0
-0.7133013 -0.3677780 1.2396021 0
-0.2343659 -0.1584467 0.6557050 0
-0.1890666 -0.0795809 0.5683041 0
0.5296583 2.0390611 6.6197457 0
-1.6146111 -1.3911622 2.9566431 0
-2.8362839 -1.4119899 3.3118548 0
-0.4488404 -0.0265611 0.6068274 0
-0.1212739 -0.0875766 0.5608471 0
-0.2756493 -0.0534727 0.5156541 0
-0.4673088 -0.1487788 0.6835095 0
-0.6228348 -0.0761244 0.5118327 0
-0.4602146 -0.0021212 0.6005120 0
-0.2160982 -0.6181538 1.3082770 0
-0.0735446 -0.0835842 0.5053877 0
-0.4656854 -0.0938432 0.6375817 0
0.1910304 -0.3677071 0.9459175 0
0.4787454 -0.2622636 0.8083720 0
-0.7316122 -0.1339864 0.5656089 0
-1.6527561 -1.4193448 3.0203447 0
-0.3135110 -0.0834147 0.5622059 0
-1.3198093 -1.0552069 2.8086479 0
-0.2363348 -0.0050742 0.4936413 0
-2.3363156 -1.5046915 3.0947571 0
-0.3255218 0.0062041 0.4420131 0
-0.1586139 -0.0716854 0.5295981 0
2.5658374 -4.7028861 8.9654274 0
1.5488006 -3.4319108 6.9112740 0
0.1272024 -0.3497355 0.8590332 0
-0.6214307 -0.3259847 1.0857396 0
